x,y,z,SaliencyScore,NormalizedScore
-0.6198,0.1517,-0.5753,0.0,0.0
-0.1467,0.1381,-0.8019,0.0,0.0
0.1683,-0.0507,-0.229,5.397177419354839,0.2109036476798235
-0.2839,0.0631,-0.419,0.0,0.0
-0.5257,-0.0818,0.5813,0.0,0.0
0.2991,0.0751,-0.9186,0.0,0.0
-0.3748,-0.2146,-0.2352,0.0,0.0
-0.5334,-0.0158,0.1644,0.0,0.0
0.4305,-0.1575,0.0032,3.620967741935484,0.14149531237690063
0.0414,-0.0517,0.3134,0.0,0.0
0.5182,-0.2163,0.1165,2.2661290322580645,0.08855274560781533
-0.0674,-0.1786,-0.072,0.0,0.0
0.0596,-0.0165,-0.0815,0.0,0.0
0.097,-0.217,0.3082,0.5336021505376344,0.020851387904094118
-0.4781,-0.1534,-0.7387,0.0,0.0
0.6461,-0.1081,0.0524,0.0,0.0
0.0098,0.0371,-0.8398,0.0,0.0
0.0595,-0.2158,0.0381,0.0,0.0
0.1683,-0.0614,-0.1782,5.92271505376344,0.23143990125791114
-0.2757,-0.1145,0.1253,0.0,0.0
0.1683,-0.1474,-0.1406,1.0336021505376345,0.04038971611649465
0.5339,-0.1935,-0.1547,0.7809139784946235,0.030515507234958893
0.246,-0.2164,0.1286,0.3440860215053763,0.013445731242942302
-0.5131,-0.212,-0.8493,0.0,0.0
-0.3393,-0.0205,0.3443,0.0,0.0
0.0371,0.1026,-0.8318,1.5430107526881718,0.06029570104256938
-0.276,-0.0581,0.2898,0.0,0.0
-0.4087,-0.0205,0.3596,0.0,0.0
-0.0695,0.1524,-0.7016,0.0,0.0
-0.4626,-0.0258,0.4518,0.0,0.0
0.1683,-0.1817,0.2264,0.0,0.0
-0.429,-0.1125,0.131,0.0,0.0
-0.3087,-0.212,-0.4413,0.0,0.0
-0.1401,-0.0605,0.2819,0.0,0.0
-0.1313,-0.1162,0.12,0.0,0.0
0.1791,0.1589,-0.7661,0.0,0.0
0.1683,-0.0886,-0.8175,0.0,0.0
-0.1366,-0.1424,0.0472,0.0,0.0
-0.605,0.0816,-0.8805,1.295698924731183,0.050631581711704614
0.0659,-0.1056,0.1497,0.0,0.0
-0.3779,-0.0385,0.3715,0.0,0.0
-0.3343,-0.1972,-0.1634,0.0,0.0
-0.1111,0.1409,-0.7977,0.771505376344086,0.030147850521284693
-0.1222,-0.2049,-0.2148,0.0,0.0
0.5644,-0.1657,-0.0628,0.2614247311827957,0.010215604401376085
-0.3276,-0.2161,0.0944,0.0,0.0
-0.044,-0.0205,0.4914,0.0,0.0
-0.09,-0.0663,0.2627,0.0,0.0
-0.1325,-0.212,-0.5696,0.0,0.0
0.175,0.1287,-0.5953,0.0,0.0
0.1889,-0.0204,0.474,0.0,0.0
0.2562,-0.1254,0.0949,0.5188172043010753,0.02027364163974894
-0.4781,0.1117,-0.7736,0.0,0.0
-0.1463,-0.0205,0.023,0.0,0.0
-0.083,-0.0205,0.0173,0.0,0.0
-0.4222,0.0277,-0.3153,0.5120967741935484,0.020011029701410225
-0.2113,-0.0064,-0.1647,0.0,0.0
0.1683,-0.0652,-0.7925,0.0,0.0
-0.2438,-0.0349,-0.2818,0.0,0.0
-0.3671,-0.2145,-0.248,0.0,0.0
-0.6115,0.1098,-0.4238,0.0,0.0
0.1291,-0.0431,0.3506,0.0,0.0
-0.4999,-0.0136,0.0188,0.0,0.0
-0.6373,0.1026,-0.4172,0.0,0.0
-0.2235,-0.0082,-0.1536,0.0,0.0
0.09,0.0131,-0.2617,0.0,0.0
-0.5302,-0.083,-0.858,0.0,0.0
-0.0698,-0.2095,-0.2582,0.0,0.0
-0.0807,-0.0205,0.1657,0.0,0.0
0.4299,-0.215,-0.1856,7.901209677419355,0.3087528559048294
0.1683,-0.1985,-0.3601,0.0,0.0
-0.3726,-0.2029,-0.1992,0.0,0.0
0.1683,-0.197,-0.5893,0.0,0.0
-0.4731,-0.0585,-0.8398,0.0,0.0
-0.2565,0.056,-0.3991,0.2728494623655914,0.010662044696551904
0.0858,-0.2032,-0.2004,0.0,0.0
-0.1085,-0.1295,0.0833,0.0,0.0
0.229,0.0537,-0.3306,0.0,0.0
-0.067,-0.1862,-0.1047,0.0,0.0
0.4585,-0.1932,-0.1393,0.2614247311827957,0.010215604401376085
-0.4781,-0.119,0.2612,1.1169354838709675,0.04364610415189473
0.291,0.0698,-0.9138,0.0,0.0
0.5248,-0.1475,0.2356,0.0,0.0
0.3043,-0.0581,0.2904,0.0,0.0
-0.1912,-0.2141,-0.3445,0.0,0.0
-0.556,0.0041,0.0351,0.0,0.0
-0.5899,-0.005,0.5766,0.7674731182795699,0.029990283358281463
-0.2219,-0.1354,-0.8398,0.0,0.0
0.1683,-0.1987,0.3515,0.0,0.0
-0.1262,-0.0055,-0.1703,0.0,0.0
-0.3137,-0.0967,0.1747,0.0,0.0
0.1683,-0.1461,0.2939,0.0,0.0
-0.0629,-0.2141,-0.343,0.0,0.0
0.071,-0.2067,-0.2301,0.0,0.0
0.0021,-0.2167,0.2322,0.0,0.0
0.1683,0.0829,-0.5945,0.0,0.0
0.0461,-0.1896,-0.1207,0.0,0.0
0.2898,-0.2166,0.1724,0.260752688172043,0.010189343207542213
-0.2438,-0.1037,0.1737,0.0,0.0
0.1683,-0.1137,-0.8085,0.0,0.0
0.2305,-0.0398,0.3658,0.0,0.0
-0.6354,0.1223,-0.4742,0.0,0.0
0.2605,-0.2177,0.4119,0.0,0.0
-0.2438,-0.1305,-0.4627,0.0,0.0
0.0961,-0.1334,0.0718,0.0,0.0
0.2679,-0.0166,0.1987,0.0,0.0
0.3047,-0.0024,-0.9125,0.0,0.0
-0.1836,-0.0205,0.0925,0.0,0.0
0.2708,-0.0076,0.1139,0.0,0.0
-0.0178,-0.0165,-0.0812,0.0,0.0
-0.6336,0.0156,0.2962,0.0,0.0
-0.3019,0.1169,-0.5698,0.0,0.0
0.2834,0.0159,-0.8942,0.0,0.0
-0.1692,0.1205,-0.8205,0.0,0.0
0.4283,-0.2094,-0.2565,1.0510752688172043,0.04107250715617532
0.5248,-0.1926,0.21,0.344758064516129,0.013471992436776173
-0.566,0.007,0.395,0.0,0.0
0.0706,-0.0203,-0.0062,0.0,0.0
-0.0503,0.1322,-0.6185,0.0,0.0
0.3286,-0.2149,-0.2115,0.9516129032258065,0.037185850468762306
-0.4694,-0.0214,0.4993,0.0,0.0
-0.2438,-0.1355,-0.5341,0.0,0.0
-0.2954,-0.2143,-0.2988,0.0,0.0
0.5248,-0.0908,0.5537,0.5181451612903225,0.020247380445915068
0.4128,-0.2159,0.0082,0.0,0.0
0.1683,-0.0711,-0.5898,0.0,0.0
0.5077,-0.2174,0.362,0.0,0.0
-0.2438,-0.0824,-0.685,0.0,0.0
0.1683,-0.0705,0.1561,3.620295698924731,0.14146905118306677
-0.1683,-0.2041,-0.208,0.0,0.0
-0.4781,0.0997,-0.5401,0.0,0.0
-0.3132,-0.212,-0.7413,0.0,0.0
0.109,-0.021,0.501,0.0,0.0
-0.4781,-0.2102,0.0523,0.0,0.0
-0.2131,0.0275,-0.3144,0.0,0.0
-0.4275,-0.212,-0.4408,0.0,0.0
-0.5512,0.0966,-0.843,0.0,0.0
0.2071,-0.2152,-0.1441,2.9334677419354844,0.11463011108484993
0.0373,-0.0078,-0.1561,0.2594086021505376,0.01013682081987447
-0.6552,0.0349,0.1029,0.0,0.0
-0.2438,-0.1881,-0.7577,0.0,0.0
-0.614,0.1958,-0.7331,0.0,0.0
-0.4781,-0.1864,-0.6587,0.0,0.0
0.1683,-0.153,-0.828,0.0,0.0
-0.2438,-0.1549,-0.3507,0.0,0.0
0.4515,-0.2091,-0.2538,2.108870967741935,0.08240762625068933
0.1847,0.1182,-0.5904,0.0,0.0
-0.4781,0.0033,-0.7324,0.0,0.0
-0.0062,0.084,-0.4772,0.0,0.0
-0.5739,0.062,-0.3614,0.2594086021505376,0.01013682081987447
0.1042,-0.0205,0.2181,0.0,0.0
-0.5368,0.1242,-0.5358,0.0,0.0
-0.5443,0.0632,-0.394,0.0,0.0
0.5922,-0.003,0.6209,0.0,0.0
-0.4781,-0.1702,-0.1373,0.0,0.0
0.3818,-0.2156,-0.0575,0.0,0.0
0.1732,-0.0201,0.2943,0.0,0.0
0.1683,0.0625,-0.7447,0.2600806451612903,0.010163082013708342
-0.2729,-0.2146,-0.2408,0.0,0.0
0.1905,-0.0263,0.0851,0.0,0.0
-0.5888,0.0141,0.2475,0.0,0.0
0.262,-0.0046,0.0679,0.0,0.0
-0.4781,-0.029,0.1832,0.0,0.0
-0.0465,-0.0543,0.3037,0.0,0.0
-0.4781,-0.1927,0.4883,1.0315860215053763,0.04031093253499303
0.1888,0.0839,-0.4437,0.0,0.0
-0.1927,-0.0581,0.5744,0.34610215053763443,0.013524514824443919
0.084,-0.0687,0.2554,0.0,0.0
-0.24,-0.2172,0.3357,0.0,0.0
-0.185,-0.2166,0.2095,0.0,0.0
-0.231,-0.2058,-0.2224,0.0,0.0
0.3464,-0.0879,0.1996,0.0,0.0
-0.2886,-0.215,-0.1515,0.0,0.0
0.1683,-0.0403,-0.3541,2.575940860215053,0.10065915596523015
-0.4722,0.0273,-0.3139,0.2594086021505376,0.01013682081987447
0.3262,-0.2176,0.3987,0.0,0.0
-0.181,0.0533,-0.3915,0.0,0.0
0.4963,-0.2178,0.4397,0.0,0.0
-0.4572,-0.1539,-0.8398,0.0,0.0
-0.6293,0.0268,0.3227,0.0,0.0
-0.3668,-0.0023,-0.1896,0.0,0.0
-0.1944,-0.1925,-0.137,0.0,0.0
-0.4648,-0.0381,0.3746,0.0,0.0
0.1683,-0.1414,-0.1665,0.2594086021505376,0.01013682081987447
-0.5317,-0.1711,0.5877,0.0,0.0
0.1683,-0.1638,0.4439,0.0,0.0
-0.0179,-0.2176,0.4338,0.0,0.0
0.2719,-0.2155,-0.0776,0.8669354838709677,0.03387694004569448
-0.2634,-0.1639,-0.0182,0.0,0.0
-0.2438,-0.0322,-0.6049,0.0,0.0
0.1683,-0.1757,0.29,0.0,0.0
0.1683,-0.0547,0.5285,0.0,0.0
-0.0495,-0.092,0.1882,0.0,0.0
-0.4378,-0.0205,0.5073,0.0,0.0
0.5248,-0.1557,0.3103,0.3508064516129032,0.013708343181281018
-0.3363,-0.1223,0.1035,0.0,0.0
0.1265,-0.212,-0.6588,0.0,0.0
0.4278,-0.0422,0.3543,0.0,0.0
0.151,0.0052,-0.2275,0.0,0.0
-0.4781,-0.0474,0.2449,0.0,0.0
-0.5005,-0.106,-0.8476,0.0,0.0
0.003,-0.2167,0.2275,0.0,0.0
-0.5783,-0.0058,0.5709,1.1169354838709677,0.04364610415189474
-0.018,0.095,-0.5081,0.0,0.0
0.0915,-0.0205,0.2776,0.0,0.0
0.1465,-0.0877,0.1999,0.0,0.0
0.1683,0.0847,-0.7535,0.0,0.0
-0.0849,0.0046,-0.2247,0.0,0.0
-0.3863,-0.2175,0.4049,0.0,0.0
0.1683,-0.0292,-0.505,2.127016129032258,0.08311667848420388
0.37,-0.1839,-0.0941,0.0,0.0
-0.2438,-0.0522,-0.0155,0.0,0.0
-0.4781,-0.176,-0.6865,0.0,0.0
0.1683,-0.2139,0.1102,0.0,0.0
-0.4843,-0.1721,0.5686,0.0,0.0
-0.1394,-0.1865,-0.1067,0.0,0.0
-0.4698,-0.0699,0.251,0.0,0.0
-0.4026,-0.212,-0.6936,0.0,0.0
-0.4187,-0.0265,0.4468,0.0,0.0
0.214,-0.1528,0.0173,0.0,0.0
-0.374,-0.2153,-0.08,0.512768817204301,0.020037290895244093
-0.0164,-0.0205,0.4544,0.0,0.0
-0.2506,0.0024,-0.8398,0.0,0.0
-0.5337,-0.0823,0.5841,0.0,0.0
0.0933,-0.1039,0.1546,0.0,0.0
0.1683,-0.0402,-0.5543,0.0,0.0
-0.089,-0.2161,0.1025,0.0,0.0
-0.2585,-0.2147,-0.2184,0.0,0.0
-0.4781,-0.1748,-0.5479,0.0,0.0
-0.3057,0.0067,-0.2342,0.0,0.0
-0.087,-0.217,0.2986,0.0,0.0
0.1689,-0.052,0.313,0.0,0.0
-0.2808,-0.1829,-0.0897,0.0,0.0
-0.4781,-0.0339,0.3182,0.0,0.0
0.0839,0.1569,-0.7269,0.0,0.0
-0.3888,-0.1024,0.1593,0.0,0.0
-0.4377,-0.1745,-0.056,0.0,0.0
-0.2438,-0.0656,-0.3702,0.0,0.0
0.3605,-0.2161,0.0645,0.2594086021505376,0.01013682081987447
-0.0569,0.0627,-0.8398,0.0,0.0
0.2565,0.1067,-0.4379,0.0,0.0
0.1683,-0.1947,0.5025,0.0,0.0
0.1283,-0.0503,0.319,0.0,0.0
-0.0257,-0.0506,0.3177,0.0,0.0
-0.6329,-0.1288,-0.8798,0.0,0.0
-0.4781,-0.13,0.3921,1.0383064516129032,0.04057354447333175
-0.2438,0.0186,-0.732,0.0,0.0
-0.1717,-0.0153,-0.0945,0.0,0.0
-0.5361,0.1677,-0.6957,0.0,0.0
0.0531,0.0024,-0.2143,0.0,0.0
-0.5027,0.0178,-0.2973,0.25873655913978494,0.010110559626040598
0.1683,-0.141,-0.3566,0.0,0.0
0.1145,0.108,-0.5446,0.0,0.0
-0.0584,-0.0237,0.4704,0.0,0.0
0.4181,-0.2173,0.3283,0.773521505376344,0.030226634102786306
-0.5815,-0.1886,0.5802,0.0,0.0
-0.4781,-0.1734,-0.419,0.5161290322580645,0.020168596864413454
-0.2438,-0.12,-0.2656,0.0,0.0
0.3267,-0.2173,0.3247,1.2903225806451613,0.050421492161033636
-0.4781,-0.2008,-0.2353,0.260752688172043,0.010189343207542213
-0.4601,-0.1966,-0.1588,0.0,0.0
0.0762,-0.212,-0.3584,0.0,0.0
0.2922,-0.0147,0.2145,0.5120967741935484,0.020011029701410225
0.1683,-0.0767,0.5094,0.0,0.0
-0.4716,-0.0205,0.1702,0.0,0.0
-0.5304,-0.0761,0.5826,0.0,0.0
0.3856,-0.2116,-0.2878,0.0,0.0
-0.0087,-0.1196,0.1111,0.0,0.0
-0.6229,-0.1965,-0.8763,0.0,0.0
0.1681,0.1096,-0.8281,0.0,0.0
0.1678,-0.0981,0.1706,1.8044354838709677,0.07051130544394547
-0.0664,-0.0845,0.2087,0.0,0.0
0.0021,-0.0205,0.1177,0.0,0.0
0.6634,0.0216,0.4607,0.7049731182795699,0.027547992331731396
0.1683,-0.1693,0.0009,1.5369623655913975,0.06005935029806453
0.3024,-0.2145,-0.3033,7.979166666666667,0.3117991543895585
-0.0107,-0.2161,0.088,0.0,0.0
-0.1559,-0.1192,0.1121,0.0,0.0
-0.574,0.0095,0.1523,0.0,0.0
0.2928,-0.0172,0.4073,0.0,0.0
0.2386,0.1226,-0.4706,0.0,0.0
-0.259,-0.0205,0.2616,0.0,0.0
-0.2728,-0.2145,-0.2576,0.0,0.0
0.163,-0.2155,-0.0346,0.0,0.0
-0.4252,0.1312,-0.6152,0.0,0.0
-0.097,-0.216,0.0672,0.0,0.0
0.2528,0.1674,-0.5784,0.0,0.0
-0.6173,0.0289,-0.1842,0.0,0.0
-0.2312,-0.217,0.2963,0.0,0.0
0.1683,-0.046,-0.4659,0.7721774193548386,0.03017411171511856
0.5248,-0.1565,0.0688,0.0,0.0
0.1683,-0.0041,-0.2229,2.840725806451613,0.11100606633577562
0.2856,-0.0586,0.2887,0.0,0.0
0.2461,0.1402,-0.551,0.0,0.0
-0.1796,-0.1929,-0.8398,0.0,0.0
-0.5703,-0.1028,0.5974,0.0,0.0
-0.6244,0.0606,-0.2595,0.0,0.0
-0.3608,0.0008,-0.2063,0.0,0.0
0.6022,-0.0979,0.756,0.0,0.0
-0.4781,-0.1699,-0.4895,1.5463709677419355,0.06042700701173875
0.1683,-0.1531,0.5195,0.0,0.0
-0.4722,-0.216,0.0735,0.0,0.0
0.235,-0.025,0.4591,0.0,0.0
0.1683,-0.1306,-0.6307,0.0,0.0
-0.2095,-0.212,-0.7199,0.0,0.0
0.2311,-0.1922,-0.1339,0.0,0.0
-0.5326,0.0717,-0.4292,0.35551075268817206,0.013892171538118121
-0.2517,-0.0215,0.4959,0.0,0.0
-0.4723,-0.1492,0.0274,2.698252688172043,0.10543869324299482
0.2668,0.016,0.0152,0.0,0.0
0.2651,-0.0028,0.1768,0.0,0.0
-0.2438,-0.1512,-0.5305,0.0,0.0
-0.4151,0.0832,-0.475,0.0,0.0
-0.4781,-0.0375,0.0423,1.0329301075268815,0.040363454922660774
-0.0237,-0.0103,-0.1385,0.0,0.0
-0.5149,0.0701,-0.4417,0.35551075268817206,0.013892171538118121
-0.2438,-0.1972,-0.1283,0.0,0.0
0.2399,0.1614,-0.8326,0.0,0.0
-0.4239,-0.0205,0.1707,0.0,0.0
0.1993,-0.0098,0.0526,0.0,0.0
0.2176,0.0177,-0.1475,0.0,0.0
0.5075,-0.2163,0.1111,1.7446236559139783,0.06817405919273088
0.3086,-0.2148,-0.2347,0.3487903225806452,0.013629559599779406
-0.3055,0.0224,-0.2969,0.0,0.0
-0.309,-0.212,-0.8234,0.0,0.0
0.1498,0.0325,-0.3305,0.0,0.0
0.4378,-0.0887,0.1974,0.0,0.0
0.1807,-0.1759,-0.0607,0.260752688172043,0.010189343207542213
-0.3879,-0.1344,0.0695,0.0,0.0
-0.1942,-0.2152,-0.0995,1.0309139784946237,0.04028467134115917
0.1683,-0.1973,-0.0902,0.0,0.0
-0.5897,0.0144,0.3586,0.0,0.0
-0.4356,-0.2123,-0.3058,0.0,0.0
-0.0889,-0.0205,0.0525,0.0,0.0
0.1454,-0.1566,0.0054,0.0,0.0
0.2614,-0.2112,-0.2821,0.7701612903225807,0.030095328133616955
-0.4781,-0.1878,0.2604,0.0,0.0
0.0184,-0.0205,0.4932,0.0,0.0
-0.4781,0.0,-0.3205,0.0,0.0
-0.1908,-0.2175,0.4185,0.0,0.0
-0.1652,-0.212,-0.3337,0.0,0.0
-0.2567,-0.2097,-0.2604,0.0,0.0
-0.4957,-0.0007,-0.832,0.0,0.0
-0.138,-0.0889,0.1969,0.0,0.0
0.3628,-0.2144,-0.3128,0.2721774193548387,0.010635783502718031
0.0085,-0.2145,-0.2482,0.0,0.0
0.2259,0.1091,-0.4535,0.0,0.0
0.1555,-0.2177,0.4587,0.0,0.0
-0.6502,0.2078,-0.7071,0.0,0.0
0.4391,-0.216,0.0323,0.0,0.0
-0.4079,-0.212,-0.3733,0.0,0.0
-0.1328,-0.2086,-0.2472,0.0,0.0
-0.4643,-0.022,0.4913,0.0,0.0
-0.0961,-0.212,-0.4499,0.0,0.0
0.0321,-0.0205,0.2184,0.0,0.0
-0.1666,0.079,-0.8389,0.0,0.0
-0.2438,0.0121,-0.2645,0.0,0.0
-0.5037,-0.0251,0.3118,0.0,0.0
-0.2299,0.1531,-0.7709,0.0,0.0
0.5134,-0.2167,0.1967,1.2909946236559138,0.0504477533548675
-0.2438,-0.0153,-0.3111,0.0,0.0
0.2538,0.1252,-0.494,0.0,0.0
-0.4545,-0.1574,0.0027,0.0,0.0
0.0115,-0.0342,0.3944,0.0,0.0
0.1441,-0.0205,0.3175,0.0,0.0
-0.0722,-0.215,-0.1516,0.0,0.0
0.0337,-0.212,-0.7959,0.0,0.0
-0.2438,0.0703,-0.643,0.0,0.0
-0.2433,-0.0992,0.1681,0.0,0.0
-0.0053,-0.0205,0.3736,0.0,0.0
0.0553,-0.2148,-0.1839,0.0,0.0
-0.0148,-0.1585,-0.0002,0.0,0.0
-0.3042,-0.087,0.2018,0.0,0.0
-0.2438,-0.0698,0.5025,0.0,0.0
0.1683,-0.0152,-0.2639,0.0,0.0
-0.3597,0.0341,-0.3355,0.2600806451612903,0.010163082013708342
-0.328,-0.2095,-0.2602,0.0,0.0
0.3988,-0.1772,-0.0658,0.2513440860215054,0.00982168649386801
0.1089,-0.1052,0.1507,0.0,0.0
0.2013,0.0357,-0.8598,0.0,0.0
0.4892,-0.2167,0.1944,0.7708333333333333,0.03012158932745082
-0.0223,-0.0912,0.1904,0.0,0.0
0.239,-0.1453,-0.8826,0.0,0.0
-0.4781,0.0851,-0.7391,0.0,0.0
0.1683,0.0701,-0.6991,0.2708333333333333,0.010583261115050289
0.58,-0.1021,0.7048,0.0,0.0
0.0512,-0.2107,-0.2745,0.0,0.0
0.6691,0.0172,0.6487,0.0,0.0
-0.1891,-0.0205,0.2846,0.0,0.0
0.2006,-0.2156,-0.0599,0.0,0.0
-0.4768,-0.212,-0.5995,1.0961021505376345,0.04283200714304472
0.0109,0.0348,-0.3379,0.0,0.0
-0.6453,0.0414,-0.1261,0.0,0.0
-0.2691,-0.1056,0.1498,0.0,0.0
-0.2263,-0.0302,0.4205,0.0,0.0
-0.3495,0.0949,-0.5079,0.0,0.0
0.1683,-0.0735,-0.1227,0.0,0.0
-0.4592,-0.217,0.3062,0.0,0.0
-0.4339,-0.0438,0.3461,0.0,0.0
-0.4649,-0.0379,0.3748,0.0,0.0
-0.2438,-0.1404,-0.6043,0.0,0.0
-0.4781,0.0533,-0.4,0.0,0.0
-0.5605,-0.1065,0.594,0.0,0.0
0.0864,-0.1447,0.0403,0.0,0.0
-0.3226,-0.2158,0.0315,0.0,0.0
-0.2438,-0.0749,-0.7273,0.0,0.0
-0.4781,0.0642,-0.5024,1.0336021505376345,0.04038971611649465
0.0736,-0.2158,0.0282,0.0,0.0
0.2705,0.0379,-0.8864,0.0,0.0
0.026,-0.009,-0.1475,0.2594086021505376,0.01013682081987447
-0.1998,-0.0205,0.2027,0.0,0.0
-0.1439,0.0331,-0.3324,0.25873655913978494,0.010110559626040598
0.2148,0.1551,-0.6103,0.0,0.0
-0.4765,-0.2159,0.0585,0.0,0.0
-0.4781,-0.2154,0.2624,0.0,0.0
0.1667,0.0824,-0.8383,0.0,0.0
0.0209,-0.2161,0.0981,0.0,0.0
-0.4781,0.1053,-0.6099,0.0,0.0
-0.5763,-0.0008,-0.019,0.0,0.0
-0.1989,-0.045,0.3412,0.0,0.0
-0.4741,-0.0205,0.1662,0.0,0.0
0.1683,-0.1968,0.2554,0.0,0.0
0.223,0.1213,-0.8564,0.0,0.0
-0.1319,-0.2134,-0.335,0.0,0.0
-0.6554,0.1148,-0.3963,1.1666666666666667,0.04558943249560125
-0.2458,-0.1725,-0.0479,0.0,0.0
-0.3678,-0.212,-0.7184,0.0,0.0
0.0077,-0.1518,-0.8398,0.0,0.0
-0.0959,-0.2175,0.4093,0.0,0.0
-0.4781,-0.1675,-0.1771,0.0,0.0
0.1683,-0.1327,-0.2627,7.214381720430107,0.2819139158066125
-0.2438,0.0257,-0.4013,0.0,0.0
0.3043,-0.2162,0.0774,0.2600806451612903,0.010163082013708342
-0.6052,0.0204,-0.0261,0.0,0.0
-0.6135,0.0219,0.0426,0.0,0.0
-0.2438,-0.2063,-0.8091,0.0,0.0
-0.0034,-0.212,-0.8212,0.0,0.0
-0.4193,-0.212,-0.5371,0.0,0.0
0.1683,-0.1559,-0.4096,0.0,0.0
0.2257,-0.032,0.459,0.0,0.0
0.4603,-0.1931,-0.1392,0.2614247311827957,0.010215604401376085
0.549,-0.0449,0.2769,0.0,0.0
-0.23,0.1444,-0.6654,0.0,0.0
0.2609,-0.1719,-0.0456,1.5651881720430108,0.061162320439087155
-0.2438,-0.0693,-0.0171,0.0,0.0
-0.26,-0.1635,-0.0169,0.0,0.0
0.6489,-0.0505,0.2129,0.0,0.0
-0.5486,-0.0256,0.5801,0.7869623655913979,0.030751857979463743
0.3265,-0.1376,0.0606,1.5470430107526882,0.06045326820557262
-0.2252,-0.0843,0.2093,0.0,0.0
-0.0576,0.0559,-0.8398,0.0,0.0
0.1402,0.0316,-0.3278,0.0,0.0
-0.304,-0.1197,0.1108,0.0,0.0
-0.5137,0.0714,-0.4086,0.0,0.0
0.0119,-0.212,-0.8136,0.0,0.0
-0.6479,0.1033,-0.879,0.512768817204301,0.020037290895244093
0.5106,-0.2144,-0.3265,0.2701612903225806,0.010556999921216417
0.4124,-0.2082,-0.2429,0.534274193548387,0.020877649097927987
0.1683,-0.1206,0.2095,0.0,0.0
0.2023,-0.0559,-0.8452,0.0,0.0
0.0594,-0.2166,0.2173,0.0,0.0
0.1573,0.0605,-0.4115,0.0,0.0
0.1879,-0.1464,-0.8517,0.0,0.0
-0.1054,-0.0205,0.4438,0.0,0.0
0.1175,-0.0205,0.3094,0.0,0.0
0.0441,-0.212,-0.5991,0.0,0.0
-0.3067,-0.212,-0.5142,0.0,0.0
0.1683,-0.003,-0.4251,0.0,0.0
-0.4781,-0.133,0.18,0.0,0.0
0.2932,-0.0424,0.3533,0.0,0.0
-0.5776,0.104,-0.8506,0.5100806451612903,0.019932246119908608
-0.5789,0.1306,-0.5141,0.0,0.0
-0.0499,0.0205,-0.8398,0.0,0.0
-0.0965,-0.2147,-0.2026,0.0,0.0
-0.1526,-0.2151,-0.118,0.0,0.0
-0.6377,0.1653,-0.8503,0.0,0.0
-0.2215,-0.0802,0.221,0.0,0.0
0.1551,-0.2142,-0.3145,0.0,0.0
-0.1048,-0.0288,0.4296,0.0,0.0
0.0669,-0.0205,0.3781,0.0,0.0
-0.6228,0.1881,-0.656,0.0,0.0
-0.3383,-0.2171,0.3106,0.0,0.0
0.1161,-0.0678,0.2576,0.0,0.0
-0.6522,0.0214,0.4097,0.0,0.0
0.1683,-0.1088,-0.8212,0.0,0.0
0.1185,-0.2149,-0.1705,0.0,0.0
-0.1727,0.0018,-0.2108,0.0,0.0
-0.4781,-0.1373,-0.1625,24.21841397849462,0.9463746421912338
-0.0915,0.0209,-0.8398,0.0,0.0
-0.3073,-0.0112,-0.1319,0.0,0.0
0.1683,-0.2105,-0.0804,0.0,0.0
-0.1584,-0.0794,0.2232,0.0,0.0
0.4933,-0.0225,0.4855,0.8548387096774194,0.033404238556684784
-0.3411,-0.0205,0.3028,0.0,0.0
-0.6343,0.1628,-0.8294,0.0,0.0
0.2303,0.0639,-0.3144,0.0,0.0
0.3349,-0.2166,0.1632,0.0,0.0
-0.3491,-0.1497,-0.8398,0.0,0.0
0.638,-0.177,-0.22,0.0,0.0
-0.1218,-0.0226,0.4822,0.0,0.0
0.3173,-0.1258,0.0937,0.0,0.0
-0.3503,-0.216,0.0696,0.0,0.0
0.2505,-0.0148,0.3224,0.0,0.0
-0.3753,-0.2156,-0.0194,0.0,0.0
0.6309,-0.169,-0.1539,0.0,0.0
-0.3131,-0.0926,0.1865,0.0,0.0
-0.4781,-0.0088,-0.4047,0.0,0.0
-0.4119,-0.054,0.3045,0.0,0.0
-0.1049,-0.0205,0.3363,0.5120967741935484,0.020011029701410225
0.5908,-0.1396,0.0021,0.0,0.0
0.3148,-0.2155,-0.0757,0.34677419354838707,0.013550776018277788
0.4855,-0.215,-0.1764,1.8891129032258063,0.0738202158670133
-0.5808,-0.0009,0.2322,0.0,0.0
0.4589,-0.0293,0.5471,1.0625,0.04151894745135113
-0.2505,-0.2155,-0.0399,0.0,0.0
-0.4153,-0.0401,0.3643,0.0,0.0
0.6021,-0.1928,0.6801,0.0,0.0
-0.2825,0.0594,-0.4084,0.0,0.0
0.1911,-0.0163,0.1757,0.0,0.0
-0.2452,-0.1716,-0.0453,0.0,0.0
0.1644,0.1332,-0.8081,0.0,0.0
-0.6437,0.1631,-0.5856,0.0,0.0
-0.2438,-0.1046,0.3844,0.0,0.0
-0.4019,-0.2153,-0.0717,0.512768817204301,0.020037290895244093
-0.5731,-0.1157,-0.859,0.0,0.0
0.0456,-0.217,0.2929,0.0,0.0
0.615,-0.1328,0.779,0.0,0.0
-0.4781,-0.1601,-0.0213,3.7130376344086025,0.14509309593214106
-0.3229,-0.0306,0.4176,0.0,0.0
-0.5124,0.1218,-0.5522,0.0,0.0
-0.2438,0.1288,-0.7216,0.0,0.0
0.3579,-0.0213,0.4992,1.545698924731183,0.06040074581790488
0.0804,-0.1846,-0.0978,0.0,0.0
-0.4781,0.0907,-0.5981,0.25268817204301075,0.009874208881535753
-0.0782,-0.0205,0.1522,0.0,0.0
-0.2438,-0.1524,-0.3068,0.0,0.0
-0.2438,-0.0923,0.2629,0.0,0.0
-0.1354,-0.1401,0.0532,0.0,0.0
-0.1732,-0.212,-0.4218,0.0,0.0
-0.0376,-0.0222,0.4857,0.0,0.0
0.0513,-0.0205,0.1855,0.3440860215053763,0.013445731242942302
0.2917,-0.1372,-0.9144,0.0,0.0
0.0007,-0.2173,0.3636,0.260752688172043,0.010189343207542213
-0.2438,-0.1061,-0.4026,0.0,0.0
0.254,-0.216,0.0494,0.0,0.0
-0.526,-0.0181,0.3995,0.0,0.0
-0.3105,-0.1704,-0.0406,0.0,0.0
-0.3764,-0.0205,0.2081,0.25201612903225806,0.009847947687701883
0.1683,-0.1999,0.2675,0.0,0.0
0.1344,-0.0292,0.4262,0.0,0.0
0.5248,-0.0824,0.4875,1.0349462365591398,0.04044223850416239
0.2799,-0.1642,-0.0185,0.0,0.0
-0.4781,-0.1274,-0.01,4.743279569892473,0.18535150607946635
0.2364,-0.0142,0.2901,0.0,0.0
-0.2438,-0.0467,-0.5993,0.0,0.0
-0.0473,-0.1543,0.0123,0.0,0.0
0.0204,-0.0687,0.5779,0.0,0.0
-0.0585,-0.191,-0.8398,0.0,0.0
-0.4375,-0.1889,-0.1174,0.0,0.0
0.1828,-0.2155,-0.0635,0.0,0.0
-0.0437,0.1564,-0.7554,0.0,0.0
0.6387,-0.1788,-0.2381,0.0,0.0
0.1695,-0.0262,0.1793,0.0,0.0
-0.2722,-0.0244,0.4637,0.0,0.0
-0.3786,-0.0205,0.3128,0.0,0.0
-0.4513,-0.0132,-0.1133,0.0,0.0
0.1086,-0.0205,0.2081,0.0,0.0
0.1449,-0.0338,0.3977,0.0,0.0
-0.4081,0.1551,-0.7631,0.0,0.0
-0.2603,-0.212,-0.6938,0.0,0.0
-0.1421,-0.2174,0.3954,0.0,0.0
0.2798,-0.0151,0.3583,0.0,0.0
-0.3075,-0.0341,0.396,0.0,0.0
0.4409,-0.2156,-0.0441,0.260752688172043,0.010189343207542213
0.1683,-0.116,-0.1451,2.6001344086021505,0.10160455894324955
-0.4793,-0.0245,0.2394,0.0,0.0
-0.5138,-0.0094,0.0864,0.0,0.0
0.2022,-0.0383,0.373,0.0,0.0
-0.3205,-0.1295,0.0833,0.0,0.0
-0.0713,-0.2146,-0.2281,0.0,0.0
0.1046,-0.0205,0.0162,0.0,0.0
-0.0516,-0.2148,-0.1881,0.0,0.0
-0.4758,-0.0315,0.4124,0.0,0.0
-0.2438,-0.1784,0.0902,0.0,0.0
0.5843,-0.009,0.4067,0.0,0.0
-0.2438,-0.093,-0.3804,0.0,0.0
-0.2438,-0.0354,0.0302,0.0,0.0
-0.3468,-0.212,-0.6424,0.0,0.0
-0.009,-0.212,-0.3541,0.0,0.0
-0.3789,-0.2143,-0.3024,0.0,0.0
0.2192,-0.2123,-0.3023,1.284274193548387,0.050185141416528786
-0.4781,-0.1873,-0.422,0.5161290322580645,0.020168596864413454
-0.205,-0.1506,0.0238,0.0,0.0
0.033,0.0157,-0.2721,0.0,0.0
0.3594,-0.1916,-0.1309,0.2513440860215054,0.00982168649386801
0.5248,-0.1722,-0.0299,0.0,0.0
-0.0243,-0.2048,-0.2127,0.0,0.0
-0.0746,-0.1342,-0.8398,0.0,0.0
0.2615,0.109,-0.3948,0.0,0.0
-0.3272,-0.2168,0.2451,0.0,0.0
0.5108,-0.1514,0.0217,0.0,0.0
-0.1911,-0.2042,-0.2094,0.0,0.0
-0.1009,-0.1242,0.0981,0.0,0.0
0.1683,-0.034,-0.2315,3.3326612903225805,0.13022926022216968
-0.2438,-0.0661,-0.1842,0.0,0.0
-0.1683,0.0532,-0.3911,0.0,0.0
0.1683,-0.209,-0.5266,0.0,0.0
0.667,-0.1393,-0.1131,0.0,0.0
0.6216,0.0113,0.5014,0.0,0.0
-0.4547,-0.212,-0.3493,0.0,0.0
-0.1217,-0.0278,0.4355,0.0,0.0
-0.1077,-0.0166,-0.08,0.0,0.0
0.039,-0.0619,0.5759,0.0,0.0
-0.2444,-0.1348,0.0684,0.0,0.0
0.4814,-0.0705,0.2497,0.0,0.0
-0.3824,-0.0089,-0.1486,0.0,0.0
0.2783,-0.0221,0.2814,0.2600806451612903,0.010163082013708342
-0.2705,-0.2157,0.0103,0.0,0.0
-0.2438,-0.0622,-0.2125,0.0,0.0
-0.5381,0.1709,-0.754,0.0,0.0
0.278,0.0048,0.125,0.0,0.0
-0.6593,0.0362,0.2919,0.0,0.0
-0.2069,-0.2175,0.4198,0.0,0.0
-0.2438,0.1187,-0.6828,0.0,0.0
-0.5862,0.0781,-0.3579,0.25268817204301075,0.009874208881535753
0.1683,0.1058,-0.7783,0.0,0.0
-0.2438,-0.1141,-0.0052,0.0,0.0
0.4646,-0.2164,0.1318,0.2513440860215054,0.00982168649386801
0.1683,-0.0869,-0.6238,0.0,0.0
0.2635,0.0944,-0.3494,0.0,0.0
-0.1573,-0.212,-0.3788,0.0,0.0
-0.4781,0.0197,-0.823,0.0,0.0
0.0641,-0.1921,-0.1343,0.0,0.0
-0.0118,-0.2038,-0.2043,0.0,0.0
-0.0986,-0.2156,-0.0118,0.0,0.0
-0.3276,0.1508,-0.7775,0.0,0.0
-0.4199,0.1561,-0.7578,0.0,0.0
-0.2939,0.0024,-0.2137,0.0,0.0
0.6636,-0.1379,-0.0525,0.0,0.0
-0.0968,-0.0205,0.4392,0.0,0.0
-0.4781,-0.1302,-0.7952,0.0,0.0
0.2018,0.0204,-0.2705,0.0,0.0
-0.2438,-0.1787,-0.6859,0.0,0.0
0.1683,-0.0754,0.2721,0.0,0.0
-0.0146,-0.0579,0.2905,0.0,0.0
-0.3235,0.0179,-0.2803,0.0,0.0
-0.158,-0.2143,-0.3076,0.0,0.0
0.2671,-0.0477,0.3303,0.0,0.0
-0.5669,0.0354,-0.2286,0.0,0.0
-0.1462,0.0238,-0.302,0.0,0.0
-0.3893,-0.0418,0.3555,0.0,0.0
-0.2438,-0.0434,-0.295,0.0,0.0
-0.6574,0.0811,-0.337,0.5141129032258065,0.02008981328291184
-0.1836,0.0727,-0.8395,0.0,0.0
0.2155,-0.0156,0.2698,0.0,0.0
0.1213,-0.0474,0.5681,0.0,0.0
0.3027,-0.1898,-0.1217,0.512768817204301,0.020037290895244093
-0.202,-0.0865,0.2038,0.0,0.0
0.0217,-0.009,-0.1476,0.2594086021505376,0.01013682081987447
0.3799,-0.1573,0.0036,1.0248655913978495,0.04004832059665432
-0.2438,-0.1099,-0.0206,0.0,0.0
-0.6357,0.0162,0.2137,0.0,0.0
-0.3524,-0.216,0.0667,0.0,0.0
-0.454,-0.212,-0.5355,0.0,0.0
0.2848,-0.2166,0.1738,0.260752688172043,0.010189343207542213
-0.0256,-0.0205,0.4694,0.0,0.0
-0.1491,-0.0489,-0.8398,0.0,0.0
-0.2438,-0.132,-0.5919,0.0,0.0
0.0688,-0.2152,-0.1098,0.0,0.0
-0.3665,-0.2176,0.4294,0.0,0.0
0.1913,0.0279,-0.3186,0.0,0.0
-0.2899,-0.212,-0.4832,0.0,0.0
0.3464,-0.1635,-0.0162,0.0,0.0
-0.4781,-0.0215,-0.2379,1.2923387096774195,0.05050027574253525
0.1259,-0.0205,0.0137,0.0,0.0
0.4422,-0.2125,-0.3082,0.510752688172043,0.01995850731374248
0.5248,-0.0836,0.3404,0.0,0.0
-0.4781,-0.1211,0.0096,10.245967741935484,0.4003781611912077
-0.6297,0.0883,-0.3841,0.2600806451612903,0.010163082013708342
-0.4318,-0.1432,0.045,0.0,0.0
-0.4781,0.0909,-0.5799,0.25268817204301075,0.009874208881535753
-0.6471,0.0198,0.2136,0.0,0.0
0.1084,-0.1878,-0.1126,0.0,0.0
0.2259,0.1337,-0.5235,0.0,0.0
0.3253,-0.2174,0.3401,1.282930107526882,0.050132619028861056
0.2648,-0.0182,0.4142,0.0,0.0
0.158,-0.0334,0.3988,0.0,0.0
-0.6102,-0.1063,0.6253,0.0,0.0
-0.3239,-0.0336,0.3986,0.0,0.0
-0.205,-0.029,0.4281,0.0,0.0
0.628,-0.1571,-0.093,0.0,0.0
-0.0388,-0.212,-0.5735,0.0,0.0
-0.0384,-0.091,0.191,0.0,0.0
0.4127,-0.1132,0.1289,0.0,0.0
-0.2438,-0.0356,0.1841,0.0,0.0
0.0299,-0.1006,0.1638,0.0,0.0
-0.6066,0.0103,-0.0524,0.0,0.0
-0.5029,0.035,-0.3111,0.0,0.0
-0.2345,-0.0205,0.3255,0.0,0.0
-0.1502,-0.212,-0.5245,0.0,0.0
-0.2192,0.1501,-0.6905,0.0,0.0
0.1683,-0.1821,-0.0124,3.8629032258064515,0.15094934215709443
0.1683,-0.1109,-0.1922,0.0,0.0
-0.0184,-0.2006,-0.1835,0.0,0.0
-0.0534,-0.0205,0.1225,0.0,0.0
0.6379,-0.1844,-0.3326,0.0,0.0
0.4101,-0.0498,0.3218,0.0,0.0
-0.4781,-0.1549,-0.6751,0.0,0.0
-0.2701,-0.1029,0.1574,0.0,0.0
0.1683,-0.0321,-0.546,0.0,0.0
0.1683,-0.0058,-0.7663,0.0,0.0
-0.5727,-0.0076,-0.8728,1.801747311827957,0.07040626066860999
0.0956,-0.0205,0.1531,0.605510752688172,0.023661335644318385
0.1683,0.0154,-0.4441,0.0,0.0
-0.1217,-0.1844,-0.0962,0.0,0.0
0.1521,0.0905,-0.8364,0.0,0.0
0.1683,-0.0311,-0.6665,0.0,0.0
0.6239,-0.0677,0.1456,0.0,0.0
-0.2438,-0.1812,-0.7744,0.0,0.0
-0.4781,-0.0968,0.1637,1.54502688172043,0.060374484624071
-0.5981,-0.0642,-0.8677,0.0,0.0
-0.0073,-0.2162,0.111,0.0,0.0
0.1564,0.0402,-0.3536,0.0,0.0
-0.2516,-0.05,0.57,0.0,0.0
-0.0115,-0.2124,-0.3098,0.0,0.0
-0.3857,-0.0862,0.2047,0.0,0.0
-0.1207,-0.212,-0.3481,0.0,0.0
0.6171,-0.0008,0.53,0.2594086021505376,0.01013682081987447
-0.2461,-0.1596,-0.8398,0.0,0.0
0.6017,-0.1916,-0.2805,0.0,0.0
-0.5945,0.0159,0.124,0.0,0.0
-0.4781,0.0209,-0.6874,1.805779569892473,0.07056382783161322
-0.2726,-0.2165,0.1956,0.0,0.0
0.4148,-0.2094,-0.2566,0.28091397849462363,0.010977179022558363
-0.5146,-0.1494,-0.8526,0.0,0.0
-0.2962,-0.0205,0.2684,0.0,0.0
-0.4313,-0.2163,0.1434,0.0,0.0
0.1393,-0.0612,0.2791,0.0,0.0
-0.1363,0.1122,-0.5564,0.0,0.0
0.0648,-0.054,0.3055,0.0,0.0
0.1687,-0.0222,0.1223,0.260752688172043,0.010189343207542213
0.1483,-0.2158,0.0375,0.0,0.0
0.1683,-0.0118,-0.6094,0.0,0.0
-0.4781,-0.0938,0.5527,0.0,0.0
-0.2438,0.0206,-0.3574,0.0,0.0
-0.4119,-0.0157,-0.0905,0.0,0.0
0.4814,-0.2154,-0.0934,1.9852150537634408,0.07757556658525695
0.1508,-0.212,-0.6864,0.0,0.0
-0.4719,-0.212,-0.5479,0.0,0.0
0.1586,-0.0667,-0.8398,0.0,0.0
-0.4781,-0.0291,-0.4337,0.0,0.0
-0.0724,-0.1853,-0.1009,0.0,0.0
0.5175,-0.0841,0.2104,0.2815860215053763,0.011003440216392235
0.4002,-0.2177,0.4227,0.0,0.0
0.168,-0.0628,0.2738,0.0,0.0
0.2857,-0.0487,-0.8956,0.0,0.0
-0.0296,-0.212,-0.8215,0.0,0.0
-0.1063,-0.1664,-0.0262,0.0,0.0
-0.6068,-0.1583,0.6056,0.0,0.0
-0.1915,-0.184,-0.0953,0.0,0.0
0.2147,-0.1918,-0.1319,0.0,0.0
-0.2298,-0.097,0.1739,0.0,0.0
-0.3516,-0.0061,-0.167,0.0,0.0
0.2321,0.0065,-0.1171,0.0,0.0
-0.2438,0.0628,-0.7288,0.0,0.0
-0.3651,-0.2166,0.2055,0.0,0.0
-0.3574,-0.0205,0.4402,0.0,0.0
0.2639,-0.0023,0.0522,0.0,0.0
0.0741,0.1535,-0.7694,0.0,0.0
-0.4627,-0.2149,-0.1712,0.0,0.0
-0.6276,0.1675,-0.8416,0.25873655913978494,0.010110559626040598
0.2167,-0.2179,0.459,0.0,0.0
-0.5864,0.0472,-0.8752,2.0678763440860215,0.08080569342682317
0.4965,-0.023,0.4788,0.603494623655914,0.023582552062816772
0.2744,-0.1984,-0.1689,1.0336021505376343,0.040389716116494646
0.0471,0.0808,-0.4684,0.0,0.0
0.6674,0.0014,0.3965,0.0,0.0
-0.1216,-0.0205,0.2929,1.5571236559139787,0.0608471861130807
0.0229,-0.2119,-0.2975,0.0,0.0
-0.5507,0.0586,-0.8626,0.25873655913978494,0.010110559626040598
0.5903,-0.0255,0.3748,0.0,0.0
-0.019,-0.0025,-0.1885,0.0,0.0
0.3584,-0.1586,-0.0004,1.014784946236559,0.03965440268914624
0.227,0.0694,-0.8738,0.0,0.0
-0.2812,-0.2168,0.253,0.0,0.0
0.0555,-0.2176,0.4437,0.0,0.0
0.2962,0.0646,-0.2357,0.0,0.0
-0.4781,-0.172,-0.5554,0.0,0.0
-0.398,-0.1996,-0.8398,0.0,0.0
0.2381,-0.1759,-0.0608,1.8239247311827957,0.07127288006512776
-0.2438,-0.0591,0.219,0.0,0.0
-0.013,-0.0205,0.4887,0.0,0.0
0.0121,-0.1925,-0.1357,0.0,0.0
0.1149,-0.0721,0.2449,0.0,0.0
-0.3516,-0.0183,-0.0563,0.0,0.0
0.1181,-0.2117,-0.2906,0.0,0.0
0.0994,-0.0504,0.3193,0.0,0.0
-0.1626,-0.152,0.0199,0.0,0.0
-0.4702,-0.0731,0.2422,0.0,0.0
-0.2801,-0.0205,0.0105,0.0,0.0
-0.1581,-0.0716,-0.8398,0.0,0.0
-0.18,-0.1282,-0.8398,0.0,0.0
-0.2313,-0.0344,0.5552,0.0,0.0
0.3933,-0.0251,0.5378,2.589381720430108,0.10118437984190762
0.2267,-0.0081,0.1531,0.0,0.0
-0.292,-0.0228,0.4792,0.0,0.0
-0.1032,-0.0205,0.1315,0.0,0.0
0.2881,0.046,-0.1732,0.0,0.0
-0.4781,-0.1631,-0.0026,3.663978494623656,0.14317602878226843
0.2759,-0.2134,-0.332,3.288978494623655,0.128522282622968
0.2546,-0.0115,0.1161,0.0,0.0
0.3315,-0.158,0.0015,0.5248655913978495,0.020509992384253786
0.1282,-0.2167,0.2371,0.5100806451612903,0.019932246119908608
-0.2562,-0.0749,0.2368,0.0,0.0
-0.0106,-0.0205,0.2332,0.0,0.0
-0.3107,0.1539,-0.7094,0.0,0.0
0.1683,-0.0907,-0.3261,4.123655913978494,0.16113868536463663
0.326,-0.0408,0.3612,0.0,0.0
-0.4781,-0.0168,-0.4502,0.0,0.0
0.1545,-0.2084,-0.2459,0.0,0.0
0.0559,0.1575,-0.7423,0.0,0.0
0.1683,-0.0582,-0.0702,0.0,0.0
0.428,-0.2159,0.0116,0.0,0.0
0.2948,0.1654,-0.8576,0.0,0.0
-0.4045,-0.2143,-0.3045,0.0,0.0
0.2322,-0.079,0.2248,0.0,0.0
0.295,-0.2171,0.2809,0.0,0.0
0.578,-0.0201,0.4275,0.5168010752688172,0.020194858058247327
0.1683,-0.0372,0.4561,0.0,0.0
0.2494,0.0112,0.0051,0.0,0.0
-0.3918,-0.1544,-0.8398,0.0,0.0
-0.0992,-0.0309,0.4151,0.0,0.0
0.3007,0.0057,0.1536,0.0,0.0
0.2732,0.1482,-0.527,0.0,0.0
-0.057,0.0308,-0.3254,0.0,0.0
-0.6669,0.0386,0.211,0.0,0.0
0.1276,-0.212,-0.4778,0.0,0.0
0.3527,-0.2163,0.098,0.344758064516129,0.013471992436776173
-0.2801,-0.0084,-0.1517,0.0,0.0
-0.2066,-0.2167,0.2287,0.0,0.0
-0.3935,-0.212,-0.7885,0.0,0.0
-0.2934,-0.1827,-0.0894,0.0,0.0
-0.2683,-0.0482,0.5687,0.0,0.0
0.1683,0.0914,-0.7208,0.0,0.0
-0.2929,0.0358,-0.3411,0.5241935483870968,0.020483731190419914
-0.0724,-0.212,-0.5891,0.0,0.0
-0.5096,0.141,-0.667,0.0,0.0
0.0063,-0.212,-0.4808,0.0,0.0
-0.266,-0.0205,0.1947,0.0,0.0
-0.4781,-0.0361,-0.0001,0.0,0.0
0.1683,-0.1713,-0.7156,0.0,0.0
0.2613,-0.0975,-0.8961,0.0,0.0
0.3469,-0.1435,0.0442,2.5954301075268815,0.10142073058641243
0.2564,0.0009,0.0045,0.0,0.0
-0.4238,-0.1146,0.1249,0.0,0.0
-0.3343,-0.0532,0.3085,0.0,0.0
0.1683,-0.1591,-0.2178,3.344758064516129,0.13070196171117937
0.1683,-0.2093,0.0915,0.0,0.0
0.4675,-0.1973,-0.1631,0.0,0.0
-0.5298,0.0286,-0.8579,0.0,0.0
0.2005,0.023,-0.2828,0.0,0.0
0.1881,-0.0589,-0.8366,0.0,0.0
0.3398,-0.1288,0.0853,0.0,0.0
-0.2438,-0.0218,-0.1551,0.0,0.0
-0.2579,-0.212,-0.6346,0.0,0.0
0.0029,-0.0205,0.2571,0.0,0.0
-0.2438,-0.1309,0.2506,0.0,0.0
-0.6448,0.0647,-0.2494,0.0,0.0
-0.4781,-0.2036,-0.7403,0.0,0.0
-0.4781,0.0526,-0.6855,1.5436827956989245,0.06032196223640325
-0.198,-0.1837,-0.8398,0.0,0.0
-0.4781,-0.0954,0.1981,0.5147849462365591,0.02011607447674571
0.0037,-0.0205,0.456,0.0,0.0
0.4592,-0.1684,-0.0332,0.0,0.0
0.2793,-0.2156,-0.0487,0.2674731182795699,0.01045195514588093
-0.4038,0.1392,-0.8003,1.032258064516129,0.04033719372882691
0.0188,-0.2174,0.3814,0.260752688172043,0.010189343207542213
-0.5943,-0.1351,0.6054,0.0,0.0
-0.2433,0.1513,-0.7765,0.0,0.0
-0.2739,-0.2147,-0.2178,0.0,0.0
-0.4781,0.0908,-0.5536,0.0,0.0
0.1023,0.1568,-0.7534,0.0,0.0
-0.6605,0.0153,-0.8894,0.0,0.0
0.1425,-0.0065,-0.1637,0.0,0.0
-0.4781,-0.051,0.5335,0.0,0.0
-0.0913,-0.2172,0.3382,0.0,0.0
0.2837,-0.1049,0.1522,0.0,0.0
-0.4609,0.0729,-0.4463,0.0,0.0
0.0734,0.1222,-0.5859,0.0,0.0
0.0021,-0.0205,0.1958,1.1438172043010753,0.044696551905249605
0.1683,-0.0647,0.4895,0.0,0.0
-0.2438,-0.0139,-0.1216,0.0,0.0
-0.4311,-0.0108,-0.8398,0.0,0.0
-0.1714,-0.132,0.0762,0.0,0.0
-0.4981,0.0002,-0.1641,0.0,0.0
-0.5416,-0.0006,0.3163,0.0,0.0
0.4988,-0.2144,-0.3073,0.691532258064516,0.02702276845505396
0.1899,0.0099,-0.189,0.5188172043010753,0.02027364163974894
0.3973,-0.0777,0.2284,0.0,0.0
0.3391,-0.1936,-0.1417,0.7728494623655914,0.030200372908952437
0.2568,0.1409,-0.8455,0.0,0.0
-0.0531,-0.0482,0.3273,0.0,0.0
-0.2501,-0.2176,0.4317,0.0,0.0
0.1717,-0.2167,0.1987,0.2614247311827957,0.010215604401376085
0.1323,-0.2039,-0.2054,0.0,0.0
-0.3809,-0.0712,0.2474,0.0,0.0
-0.5852,0.0872,-0.385,0.0,0.0
0.011,0.1217,-0.8196,0.7701612903225805,0.030095328133616945
0.4841,-0.2083,-0.2447,0.0,0.0
0.3392,-0.0395,0.3673,0.0,0.0
-0.2755,-0.212,-0.3245,0.0,0.0
0.1834,-0.0169,0.1273,0.0,0.0
0.5589,-0.0749,0.6515,0.0,0.0
0.1683,-0.1975,0.3561,0.0,0.0
-0.1177,0.1202,-0.5796,0.0,0.0
-0.4283,-0.2171,0.3141,0.0,0.0
-0.3553,-0.0205,0.4589,0.0,0.0
-0.5986,0.0019,0.5709,0.5161290322580645,0.020168596864413454
-0.3567,-0.1958,-0.1554,0.41196236559139787,0.016098111820163345
-0.4299,-0.1183,0.1143,0.0,0.0
0.3758,-0.1646,-0.0198,0.5120967741935484,0.020011029701410225
0.6196,-0.0348,0.2961,0.0,0.0
-0.2883,-0.212,-0.5067,0.0,0.0
-0.1905,0.001,-0.2071,0.0,0.0
-0.4796,-0.0502,-0.8345,0.0,0.0
0.466,-0.2144,-0.3183,0.0,0.0
0.3079,-0.2171,0.2797,0.0,0.0
-0.1335,-0.0543,0.3044,0.0,0.0
-0.0027,0.1545,-0.7654,0.0,0.0
-0.345,-0.0205,0.4705,0.0,0.0
0.3402,-0.0273,0.4408,0.0,0.0
0.3645,-0.2126,-0.3085,0.2721774193548387,0.010635783502718031
0.0956,-0.2127,-0.3178,0.0,0.0
-0.2659,-0.0255,0.4533,0.0,0.0
0.1436,-0.212,-0.6684,0.0,0.0
-0.5779,-0.0019,0.4709,0.0,0.0
-0.4118,-0.217,0.2963,0.0,0.0
0.2513,-0.003,0.0251,0.0,0.0
-0.4094,-0.0205,0.3984,0.0,0.0
0.0096,-0.0273,0.4405,0.0,0.0
0.2428,-0.006,0.1683,0.0,0.0
-0.4546,-0.2155,-0.04,0.0,0.0
-0.4273,0.0816,-0.4706,0.0,0.0
-0.6061,0.0195,0.165,0.0,0.0
-0.2852,-0.2147,-0.2076,0.0,0.0
0.0713,-0.1365,0.0637,0.0,0.0
-0.5027,-0.0128,0.2523,0.0,0.0
-0.3064,-0.2144,-0.2779,0.0,0.0
-0.0698,-0.212,-0.6924,0.0,0.0
-0.4781,-0.0897,-0.1408,4.384408602150537,0.17132802857217885
-0.1741,-0.1722,-0.0469,0.0,0.0
-0.5844,0.1618,-0.8103,0.0,0.0
0.0986,0.1181,-0.5733,0.0,0.0
0.1796,0.0927,-0.4832,0.512768817204301,0.020037290895244093
0.2338,-0.2176,0.4062,0.0,0.0
-0.6648,0.0253,0.2014,0.0,0.0
-0.6345,0.0756,-0.3012,0.0,0.0
0.6442,-0.017,0.2858,0.0,0.0
-0.2539,-0.1122,0.1316,0.0,0.0
-0.3573,0.1349,-0.6282,0.260752688172043,0.010189343207542213
0.0679,-0.21,-0.264,0.0,0.0
-0.3427,-0.2143,-0.3086,0.0,0.0
-0.2438,-0.1342,-0.0881,0.0,0.0
-0.1846,0.1375,-0.6378,0.0,0.0
0.0837,-0.215,-0.152,0.0,0.0
0.1683,-0.2022,0.1893,0.2614247311827957,0.010215604401376085
-0.6627,0.1386,-0.8835,1.0504032258064515,0.04104624596234144
0.5248,-0.0486,0.4641,3.108198924731182,0.12145802148165652
-0.2309,-0.2151,-0.1296,0.0,0.0
0.5811,-0.1945,-0.2504,0.0,0.0
0.1723,-0.2152,-0.1335,1.3366935483870968,0.052233514535570784
-0.4978,-0.1855,-0.8327,0.0,0.0
0.2119,-0.2167,0.1924,0.0,0.0
-0.4781,-0.0746,-0.5243,0.512768817204301,0.020037290895244093
-0.462,-0.2164,0.1656,0.0,0.0
0.1487,-0.2019,-0.1919,0.2614247311827957,0.010215604401376085
0.0202,-0.1301,0.0811,0.0,0.0
-0.6048,0.0115,-0.0864,0.0,0.0
0.0341,-0.0198,-0.0256,0.0,0.0
-0.417,-0.0472,0.3322,0.0,0.0
-0.2619,0.0422,-0.36,0.0,0.0
-0.223,-0.212,-0.3421,0.0,0.0
0.2568,0.2008,-0.7323,0.0,0.0
-0.2394,-0.0205,0.4267,0.0,0.0
0.0896,-0.0813,0.2184,0.0,0.0
0.0804,-0.0881,0.1989,0.0,0.0
-0.6569,-0.0093,-0.8882,0.0,0.0
-0.314,-0.2164,0.1576,0.0,0.0
-0.3194,-0.0735,0.2407,0.0,0.0
0.1683,-0.0782,-0.1017,0.0,0.0
-0.1427,-0.1947,-0.1488,0.0,0.0
-0.036,0.1303,-0.6121,0.0,0.0
0.1683,-0.1924,0.0311,0.0,0.0
-0.6543,0.136,-0.8654,0.271505376344086,0.01060952230888416
0.0086,-0.2141,-0.3365,0.0,0.0
0.0092,-0.2042,-0.2088,0.0,0.0
-0.2438,-0.066,0.5348,0.0,0.0
-0.5999,-0.1989,0.5803,0.0,0.0
-0.5956,0.064,-0.3445,0.2594086021505376,0.01013682081987447
-0.3894,-0.212,-0.7404,0.0,0.0
-0.2691,0.1513,-0.6963,0.0,0.0
0.1502,-0.178,-0.0698,0.25268817204301075,0.009874208881535753
-0.144,-0.2163,0.1468,0.0,0.0
0.6473,-0.033,0.8442,0.0,0.0
-0.3199,-0.061,0.2796,0.0,0.0
0.4674,-0.2172,0.311,0.2594086021505376,0.01013682081987447
-0.0284,-0.0205,0.313,0.0,0.0
-0.109,0.1546,-0.7649,1.2856182795698925,0.05023766380419654
-0.4781,-0.0498,0.3786,0.0,0.0
-0.3474,-0.1744,-0.0555,0.0,0.0
0.138,-0.0696,-0.8398,0.0,0.0
0.3756,-0.067,0.5775,1.023521505376344,0.03999579820898657
-0.3162,-0.212,-0.3072,0.0,0.0
-0.4781,-0.0358,0.3284,0.0,0.0
0.5179,-0.2146,-0.2726,0.0,0.0
-0.2264,-0.2154,-0.0496,0.521505376344086,0.020378686415084425
-0.2101,-0.2175,0.412,0.0,0.0
0.3452,-0.2162,0.0897,0.6041666666666666,0.023608813256650645
0.1683,-0.2058,-0.0817,0.0,0.0
0.1683,-0.142,-0.5286,0.510752688172043,0.01995850731374248
-0.1594,-0.2146,-0.244,0.0,0.0
0.0381,-0.2001,-0.1795,0.0,0.0
-0.3921,-0.21,-0.2674,0.0,0.0
0.0442,-0.0006,-0.1989,0.0,0.0
0.0637,-0.125,0.0954,0.0,0.0
-0.3338,0.0393,-0.8398,0.0,0.0
0.5989,-0.1877,-0.2269,0.0,0.0
0.1531,-0.0696,0.2528,0.0,0.0
-0.4781,-0.1131,-0.4224,0.0,0.0
-0.5349,-0.1101,-0.8457,0.0,0.0
-0.2438,-0.2076,-0.7995,0.0,0.0
-0.2495,-0.1798,-0.8398,0.0,0.0
-0.2978,-0.2162,0.1174,0.0,0.0
-0.437,-0.0205,0.0217,0.0,0.0
0.1913,-0.1782,-0.8385,0.0,0.0
-0.0469,-0.0585,0.289,0.0,0.0
-0.3967,-0.2097,-0.2627,0.0,0.0
0.6622,0.0277,0.6599,0.2513440860215054,0.00982168649386801
0.1683,-0.0842,0.2711,0.0,0.0
-0.6671,0.0386,0.3835,0.0,0.0
-0.3714,-0.2127,-0.3168,0.0,0.0
-0.2438,-0.0932,0.3032,0.0,0.0
-0.4369,-0.0607,0.2811,0.0,0.0
-0.2956,-0.1569,0.0049,0.0,0.0
0.305,-0.2104,-0.2693,3.045698924731182,0.11901573045510645
-0.382,0.1258,-0.5973,0.2594086021505376,0.01013682081987447
0.2071,-0.2148,-0.2336,0.0,0.0
0.6301,-0.1588,-0.1668,0.0,0.0
-0.2438,-0.1113,-0.383,0.0,0.0
-0.2383,-0.0186,-0.8398,0.0,0.0
-0.528,-0.0175,0.2797,0.0,0.0
-0.194,-0.0205,0.2307,0.0,0.0
-0.5601,0.0112,-0.1869,0.0,0.0
0.223,-0.2147,-0.2395,1.026209677419355,0.040100842984322066
-0.2438,0.0382,-0.5212,0.0,0.0
-0.5749,-0.0028,0.1784,0.0,0.0
0.4328,-0.072,0.2452,0.0,0.0
0.5106,-0.2144,-0.3246,0.2701612903225806,0.010556999921216417
0.2588,-0.0007,0.1381,0.0,0.0
-0.3888,-0.0911,-0.8398,0.0,0.0
0.1703,0.1369,-0.6534,0.0,0.0
0.0622,-0.2161,0.0999,0.0,0.0
-0.4148,-0.212,-0.4412,0.0,0.0
-0.3759,-0.0214,0.4957,0.0,0.0
-0.0525,0.1302,-0.6117,0.0,0.0
-0.6533,0.0343,0.0851,0.2614247311827957,0.010215604401376085
0.1683,-0.0881,-0.5175,1.284274193548387,0.050185141416528786
0.1374,-0.2164,0.1618,0.0,0.0
0.0282,0.1335,-0.8079,0.0,0.0
-0.4948,0.02,-0.8457,0.0,0.0
-0.1855,-0.0953,0.1792,0.0,0.0
-0.4732,-0.0205,0.2967,0.0,0.0
0.0489,-0.0564,-0.8398,0.0,0.0
-0.3323,-0.212,-0.4867,0.0,0.0
-0.4471,-0.0619,0.2774,0.0,0.0
0.2103,0.163,-0.6507,0.0,0.0
-0.4781,-0.2033,-0.3569,1.2943548387096775,0.05057905932403687
0.3627,-0.0439,0.3466,0.0,0.0
-0.3422,0.1256,-0.5964,0.0,0.0
0.1683,-0.2052,-0.4355,0.0,0.0
-0.3695,-0.212,-0.4586,0.0,0.0
0.2629,0.0685,-0.8789,0.0,0.0
0.2944,0.0003,0.0934,0.0,0.0
-0.1594,0.1459,-0.6716,0.0,0.0
-0.4366,0.1534,-0.7073,0.0,0.0
-0.4955,-0.0837,-0.8459,0.0,0.0
0.6494,-0.012,0.2987,0.0,0.0
-0.5771,-0.0021,0.0369,0.0,0.0
-0.2806,-0.2161,0.0941,0.0,0.0
-0.4072,-0.0205,0.3445,0.0,0.0
-0.3364,-0.0739,0.2394,0.0,0.0
0.2864,-0.2161,0.0589,0.0,0.0
0.1683,-0.2057,0.355,0.0,0.0
-0.2327,-0.0205,0.1801,0.0,0.0
-0.2191,0.1026,-0.8319,0.0,0.0
0.0348,0.1291,-0.608,0.0,0.0
0.199,-0.1005,-0.8584,0.0,0.0
-0.2438,-0.0411,0.1547,0.0,0.0
-0.0626,0.0322,-0.3299,0.0,0.0
0.1119,0.1462,-0.6729,0.0,0.0
-0.1708,0.128,-0.6044,0.0,0.0
-0.3505,-0.2144,-0.2764,0.0,0.0
0.0764,-0.2167,0.2364,0.0,0.0
0.581,-0.0469,0.6911,0.0,0.0
-0.4417,-0.2102,-0.2688,0.0,0.0
0.4168,-0.2165,0.1495,0.5497311827956989,0.021481656556107037
0.2466,0.0247,-0.0995,0.0,0.0
-0.1077,-0.2148,-0.1925,0.0,0.0
0.1314,-0.0205,0.1302,0.0,0.0
-0.4334,-0.2018,-0.1903,0.0,0.0
-0.1571,-0.212,-0.7174,0.0,0.0
-0.3915,0.1095,-0.5488,0.0,0.0
0.2008,-0.0194,0.3989,0.0,0.0
-0.2438,-0.1182,0.3801,0.0,0.0
-0.4781,0.0204,-0.7425,1.034274193548387,0.04041597731032852
-0.0301,-0.0205,0.4867,0.0,0.0
0.2019,-0.1267,-0.8449,0.0,0.0
-0.6683,0.0459,-0.1033,0.0,0.0
0.2756,0.127,-0.4222,0.0,0.0
-0.4814,-0.0191,-0.0127,0.0,0.0
0.2301,-0.136,0.065,0.0,0.0
-0.0892,-0.1881,-0.1144,0.0,0.0
-0.6713,0.0347,0.2976,0.0,0.0
-0.6157,0.0698,-0.3014,0.0,0.0
0.1683,-0.0113,-0.1922,0.7708333333333334,0.030121589327450824
-0.1187,-0.2086,-0.2491,0.0,0.0
-0.0112,-0.0765,-0.8398,0.0,0.0
-0.4781,-0.1155,-0.5555,0.0,0.0
0.4139,-0.0289,0.429,0.0,0.0
-0.4015,0.0471,-0.3742,0.0,0.0
-0.6047,0.0995,-0.4392,0.0,0.0
-0.2944,-0.1437,0.0434,0.0,0.0
0.1683,-0.1159,-0.032,1.5436827956989247,0.06032196223640326
-0.5167,0.0983,-0.481,0.342741935483871,0.01339320885527456
-0.0463,-0.188,-0.1129,0.0,0.0
0.1683,0.0339,-0.6153,0.0,0.0
-0.4781,0.0837,-0.687,0.7721774193548387,0.03017411171511857
0.0359,-0.1163,0.1199,0.0,0.0
0.1372,-0.0205,0.4914,0.0,0.0
-0.4781,-0.1399,-0.8213,0.0,0.0
-0.2501,-0.0532,0.3086,0.0,0.0
-0.3026,-0.1438,0.0429,0.0,0.0
-0.4245,-0.0412,0.359,0.0,0.0
0.0435,0.0696,-0.4371,0.0,0.0
0.1699,-0.2173,0.323,0.27419354838709675,0.010714567084219646
0.1788,-0.032,0.3653,0.0,0.0
0.5248,-0.1549,0.2884,0.3508064516129032,0.013708343181281018
0.1683,-0.2072,-0.1881,0.950268817204301,0.03713332808109456
-0.2376,-0.212,-0.2984,0.0,0.0
-0.134,-0.0205,0.3049,1.5577956989247312,0.06087344730691457
0.082,-0.212,-0.4298,0.0,0.0
-0.3781,-0.2143,-0.2936,0.0,0.0
-0.4202,-0.1976,-0.1657,0.0,0.0
0.1683,-0.1148,0.2671,0.0,0.0
0.1845,-0.0618,0.2776,0.0,0.0
-0.0516,-0.1976,-0.165,0.0,0.0
-0.4476,-0.212,-0.6176,0.0,0.0
0.0426,0.0449,-0.3679,0.0,0.0
-0.1223,-0.2067,-0.2282,0.0,0.0
-0.085,-0.0291,0.4277,0.0,0.0
0.339,-0.0631,0.5763,1.3030913978494625,0.0509204548438772
-0.3425,-0.2155,-0.0449,0.5147849462365591,0.02011607447674571
-0.1066,-0.1426,0.0467,0.0,0.0
-0.0103,-0.0205,0.1204,0.0,0.0
0.2401,-0.1605,-0.0064,0.0,0.0
-0.5533,-0.0355,-0.8661,0.521505376344086,0.020378686415084425
-0.2438,-0.0494,-0.316,0.0,0.0
0.2881,-0.2126,-0.3108,6.854166666666667,0.26783791591165734
-0.328,-0.016,-0.0866,0.0,0.0
0.4024,-0.2152,-0.1372,0.0,0.0
0.5677,-0.0108,0.4204,4.069220430107527,0.15901152866409304
-0.2906,-0.1824,-0.0876,0.0,0.0
-0.6575,0.0356,0.2744,0.0,0.0
0.1655,-0.1934,-0.141,0.0,0.0
0.2298,-0.2113,-0.2831,1.8145161290322578,0.07090522335145354
-0.0365,-0.1477,0.0322,0.0,0.0
-0.0229,0.0202,-0.2887,0.0,0.0
-0.3687,-0.2149,-0.1707,0.41196236559139787,0.016098111820163345
0.4034,-0.2143,-0.3474,0.2600806451612903,0.010163082013708342
0.0852,-0.1912,-0.13,0.0,0.0
-0.1379,-0.1995,-0.1765,0.0,0.0
-0.6153,-0.0343,-0.8877,1.6303763440860215,0.0637096562409727
-0.2438,0.0466,-0.517,0.0,0.0
0.1683,-0.201,0.1958,0.2614247311827957,0.010215604401376085
0.1039,-0.2168,0.2525,0.0,0.0
-0.3744,-0.212,-0.4147,0.0,0.0
-0.116,-0.0245,0.4635,0.0,0.0
-0.3272,-0.2142,-0.3164,0.0,0.0
-0.3497,0.0889,-0.491,0.0,0.0
-0.4749,-0.212,-0.7057,0.0,0.0
0.2935,-0.0321,-0.9156,0.0,0.0
-0.4434,-0.2146,-0.2318,0.0,0.0
-0.1449,-0.2091,-0.2546,0.0,0.0
0.1683,-0.0645,0.5236,0.0,0.0
0.1683,0.0541,-0.5506,1.8064516129032255,0.07059008902544708
-0.1805,-0.1663,-0.0258,0.0,0.0
0.3599,-0.2134,-0.331,0.0,0.0
0.0565,-0.2065,-0.2282,0.0,0.0
-0.2715,-0.212,-0.7316,0.0,0.0
0.2591,-0.0021,0.1514,0.0,0.0
-0.4908,0.1208,-0.8249,0.0,0.0
0.0295,0.0368,-0.8398,0.0,0.0
-0.4781,-0.0567,-0.3943,0.0,0.0
-0.2438,-0.2022,-0.1969,0.0,0.0
0.6236,-0.174,-0.2874,0.0,0.0
-0.4437,-0.2161,0.095,0.0,0.0
0.1683,-0.1725,-0.3775,0.0,0.0
0.147,-0.1344,0.069,0.0,0.0
-0.0748,-0.2061,-0.225,0.0,0.0
-0.1943,-0.2109,-0.2764,0.0,0.0
0.3849,-0.2178,0.4391,0.0,0.0
0.1683,-0.1405,0.4191,0.0,0.0
-0.2438,-0.1932,-0.4856,0.0,0.0
-0.2438,-0.0409,-0.5228,0.0,0.0
-0.4926,0.1163,-0.8296,0.0,0.0
-0.0943,0.0046,-0.2246,0.0,0.0
-0.2497,-0.212,-0.5526,0.0,0.0
0.1683,-0.1841,-0.8161,0.0,0.0
-0.2344,0.0901,-0.4944,0.0,0.0
-0.1993,0.0936,-0.5043,0.0,0.0
-0.1759,-0.2152,-0.0982,0.2614247311827957,0.010215604401376085
-0.4308,-0.0169,-0.0758,0.0,0.0
-0.1377,-0.1058,0.1496,0.0,0.0
-0.4781,-0.0953,-0.2019,3.8649193548387095,0.15102812573859606
0.3676,-0.0228,0.4816,0.2513440860215054,0.00982168649386801
-0.5617,0.1754,-0.7766,0.0,0.0
0.0462,-0.212,-0.6082,0.0,0.0
0.1081,-0.212,-0.4018,0.0,0.0
-0.3657,-0.1585,0.0,0.0,0.0
-0.0533,-0.2159,0.0552,0.0,0.0
-0.3478,-0.0297,0.4234,0.0,0.0
-0.0069,-0.0205,0.3385,0.0,0.0
0.4246,-0.0485,0.3267,0.0,0.0
-0.5235,0.1333,-0.8035,0.25201612903225806,0.009847947687701883
0.6195,-0.0048,0.3742,0.0,0.0
0.0384,-0.1942,-0.1455,0.0,0.0
-0.6191,0.1979,-0.7487,0.0,0.0
-0.0384,-0.217,0.3092,0.0,0.0
0.2485,0.0817,-0.3806,0.0,0.0
-0.2785,-0.0311,0.4142,0.0,0.0
0.1491,0.09,-0.4942,0.0,0.0
-0.376,-0.1515,-0.8398,0.0,0.0
0.0289,-0.1183,0.1142,0.0,0.0
0.0554,-0.0205,0.0617,0.0,0.0
-0.0486,-0.0205,0.4901,0.0,0.0
0.1234,-0.0519,0.3125,0.0,0.0
-0.1167,-0.2152,-0.1016,0.0,0.0
-0.0041,-0.0225,0.4829,0.0,0.0
-0.4702,-0.0441,0.3451,0.0,0.0
-0.6659,0.1578,-0.871,0.5181451612903225,0.020247380445915068
-0.1467,-0.0235,0.4733,0.0,0.0
0.1728,-0.1924,-0.1351,0.0,0.0
0.2996,0.0101,0.12,0.0,0.0
-0.5593,0.0234,-0.1822,0.0,0.0
-0.3985,-0.216,0.0828,0.0,0.0
0.0629,-0.2174,0.3921,0.25201612903225806,0.009847947687701883
0.0304,-0.216,0.0835,0.0,0.0
-0.2877,-0.1031,-0.8398,0.0,0.0
0.0299,-0.0119,-0.1259,0.2594086021505376,0.01013682081987447
-0.4781,0.0347,-0.3456,0.0,0.0
0.1683,0.0597,-0.4632,0.0,0.0
-0.317,-0.0738,0.2392,0.0,0.0
-0.4781,-0.056,-0.1578,0.0,0.0
-0.3604,0.0314,-0.3271,0.27956989247311825,0.01092465663489062
0.2231,-0.1879,-0.1124,0.0,0.0
-0.6475,0.0325,0.3112,0.0,0.0
-0.3719,-0.212,-0.5673,0.0,0.0
-0.4781,0.0576,-0.5648,0.0,0.0
0.4361,-0.2165,0.1616,0.5349462365591398,0.02090391029176186
0.0249,-0.2175,0.4058,0.0,0.0
-0.3445,-0.1035,-0.8398,0.0,0.0
-0.5101,0.0712,-0.4491,0.9596774193548387,0.037500984794768766
-0.2349,-0.0544,0.3033,0.0,0.0
0.0755,-0.0623,0.5761,0.0,0.0
-0.4781,-0.1907,-0.294,1.29502688172043,0.050605320517870735
-0.5016,-0.0257,0.0868,0.2620967741935484,0.010241865595209957
0.2175,-0.2158,-0.0083,0.7056451612903225,0.027574253525565265
0.4232,-0.0278,0.5442,0.0,0.0
-0.0919,-0.212,-0.4885,0.0,0.0
0.2095,-0.088,-0.8647,0.0,0.0
-0.0298,-0.2144,-0.2727,0.0,0.0
-0.3632,0.0998,-0.5216,0.0,0.0
0.1849,-0.2158,-0.0043,0.0,0.0
0.4977,-0.0577,0.2917,0.0,0.0
-0.4347,-0.186,-0.1042,0.0,0.0
-0.6475,0.1718,-0.8471,0.0,0.0
0.2591,0.0009,0.1278,0.0,0.0
-0.4781,-0.0449,0.0627,1.5443548387096775,0.06034822343023714
-0.0077,-0.2176,0.4297,0.0,0.0
-0.6483,0.1948,-0.7171,0.0,0.0
0.1683,-0.09,-0.4597,0.0,0.0
-0.2438,-0.0274,0.3203,0.0,0.0
0.2459,-0.2152,-0.1296,3.3393817204301075,0.1304918721605084
-0.3221,-0.2147,-0.2086,0.0,0.0
0.4348,-0.0233,0.4756,0.8608870967741935,0.03364058930118963
-0.5481,0.134,-0.815,0.5201612903225806,0.020326164027416684
-0.194,-0.2123,-0.3083,0.0,0.0
-0.4914,-0.139,-0.8445,0.0,0.0
-0.4781,0.1439,-0.6754,0.0,0.0
-0.6484,0.0202,0.0964,0.0,0.0
0.5248,-0.1703,0.2475,0.0,0.0
-0.58,0.0195,-0.8748,2.056451612903226,0.08035925313164737
-0.0885,-0.1141,0.1261,0.0,0.0
0.0025,-0.0205,0.3504,0.0,0.0
-0.4781,-0.1521,-0.6949,0.0,0.0
-0.3942,-0.0296,0.4242,0.0,0.0
0.1683,0.0758,-0.5965,0.0,0.0
-0.1041,0.0085,-0.2422,0.0,0.0
0.0329,-0.0741,0.2384,0.0,0.0
-0.3006,-0.0205,0.3725,0.0,0.0
0.5739,-0.1615,-0.1085,1.0336021505376345,0.04038971611649465
-0.5817,0.1648,-0.6209,0.0,0.0
0.2262,-0.0234,0.2092,0.0,0.0
-0.6355,0.0631,-0.8947,0.0,0.0
0.5248,-0.0881,0.2894,0.0,0.0
-0.5515,0.0025,0.5073,0.0,0.0
0.5219,-0.2147,-0.2542,0.25268817204301075,0.009874208881535753
-0.5771,-0.0247,-0.8604,1.0416666666666665,0.040704850442501106
-0.1213,-0.0367,0.3817,0.0,0.0
0.1683,-0.1527,-0.8166,0.0,0.0
0.2305,-0.0031,0.0948,0.0,0.0
0.5678,-0.0038,0.4812,0.2594086021505376,0.01013682081987447
-0.1526,-0.212,-0.3201,0.0,0.0
-0.5979,0.0831,-0.3609,0.25268817204301075,0.009874208881535753
0.3912,-0.2157,-0.0172,0.0,0.0
-0.2438,0.1381,-0.7441,0.0,0.0
0.1885,-0.0248,0.4613,0.0,0.0
0.3456,-0.0206,0.5153,1.284274193548387,0.050185141416528786
