x,y,z,SaliencyScore,NormalizedScore
-0.0191,0.115,-0.0204,0.0,0.0
0.1857,0.2656,0.2025,0.0,0.0
-0.0989,-0.1464,-0.4335,0.0,0.0
0.3699,-0.3065,0.6588,1.008485639686684,0.052898277810114
-0.0912,-0.1464,0.2875,0.0,0.0
-0.6592,-0.2545,0.2135,0.0,0.0
0.3732,-0.2774,0.373,3.3498694516971277,0.17571130208511654
-0.1166,0.1949,-0.6457,0.0,0.0
0.2827,0.047,0.6588,0.9281984334203655,0.048686958605813666
0.557,0.1341,0.2031,0.7911227154046998,0.04149690142773992
0.0559,-0.0022,-0.1444,0.0,0.0
-0.0946,-0.1464,-0.4292,0.0,0.0
-0.3486,-0.1464,0.2549,0.0,0.0
-0.0718,-0.1464,0.4257,0.0,0.0
-0.4057,0.2612,-0.0883,0.0,0.0
-0.4378,0.2349,-0.6496,0.0,0.0
-0.6592,-0.1327,-0.2911,0.0,0.0
-0.5812,0.1175,-0.2343,0.0,0.0
0.0332,0.0722,-0.5966,0.0,0.0
-0.6592,-0.0568,0.2213,0.0,0.0
-0.0963,-0.1464,-0.0897,0.0,0.0
0.5643,0.1828,0.1093,0.0,0.0
0.557,0.0499,0.2242,0.0,0.0
-0.1212,-0.1464,0.3362,0.0,0.0
0.5771,-0.263,0.6588,0.0,0.0
-0.6592,-0.3152,-0.1843,1.0567885117493472,0.05543191700619713
0.3732,0.0202,0.6588,0.0,0.0
-0.5886,-0.1464,-0.5571,0.531331592689295,0.02787003115691443
-0.4285,0.2425,-0.4148,0.0,0.0
-0.3733,-0.1464,0.2684,0.0,0.0
0.4508,-0.1464,-0.0056,0.0,0.0
-0.6024,0.1001,-0.6191,0.0,0.0
0.4536,-0.2809,0.6588,0.0,0.0
0.015,0.0871,-0.6185,0.0,0.0
-0.4102,-0.1464,-0.4465,0.0,0.0
-0.2403,0.2962,0.078,0.0,0.0
-0.3046,-0.1464,-0.1221,0.0,0.0
-0.327,-0.2046,-0.5574,0.0,0.0
-0.3521,-0.1464,0.2956,0.0,0.0
0.2441,-0.2512,0.6588,0.0,0.0
-0.2557,0.0253,-0.5574,0.0,0.0
-0.1061,0.1862,-0.6011,0.0,0.0
-0.6542,-0.2312,-0.6454,0.0,0.0
-0.1952,-0.1464,0.1928,0.0,0.0
0.5041,0.2733,0.212,0.0,0.0
-0.4839,0.1972,-0.0425,0.0,0.0
-0.4486,-0.1479,-0.5574,0.0,0.0
-0.0863,-0.1464,-0.2641,0.0,0.0
-0.5063,-0.1464,-0.3994,0.0,0.0
-0.6592,-0.2898,-0.5186,0.0,0.0
-0.2451,0.3001,-0.416,0.0,0.0
-0.0525,0.1423,-0.5634,0.0,0.0
-0.18,-0.1464,0.286,0.0,0.0
0.1355,-0.1464,0.3073,0.0,0.0
0.6272,-0.0456,-0.0513,0.0,0.0
-0.1154,-0.1464,-0.5474,0.0,0.0
-0.156,0.2271,-0.4809,0.2627284595300261,0.01378094292464135
0.6433,0.0866,-0.0081,0.0,0.0
0.6408,-0.1538,0.4892,4.476174934725848,0.23478960523162248
-0.6592,-0.2473,0.1536,0.0,0.0
0.201,0.1703,0.0862,0.0,0.0
-0.2576,0.3104,-0.4174,0.0,0.0
0.3897,-0.1464,0.2819,0.266644908616188,0.013986373129729173
-0.5756,-0.1464,-0.194,0.0,0.0
-0.1677,-0.1464,-0.2014,0.0,0.0
-0.3393,0.3156,-0.5972,0.0,0.0
-0.539,0.152,-0.4278,0.0,0.0
0.3203,-0.0047,0.6588,0.0,0.0
0.557,0.034,0.2999,0.0,0.0
-0.0325,-0.1464,0.3571,0.0,0.0
-0.0197,-0.1464,-0.1707,0.0,0.0
-0.3403,-0.0834,-0.5574,2.114556135770235,0.11091519156366622
0.4028,-0.2998,0.6588,2.412532637075718,0.12654500633409796
0.2842,-0.1464,0.4736,0.0,0.0
0.1725,-0.1464,0.6036,1.0881201044386422,0.0570753586468997
-0.6503,0.0544,-0.5812,0.0,0.0
-0.0739,-0.007,0.6588,0.7852480417754568,0.04118875612010818
0.1962,0.1552,0.0678,0.0,0.0
-0.4806,0.1999,-0.5996,0.0,0.0
-0.3485,0.308,0.2778,0.0,0.0
-0.6592,-0.0904,0.1524,0.0,0.0
-0.6592,-0.2794,-0.2174,0.0,0.0
0.5272,0.0068,-0.0563,0.0,0.0
-0.0084,-0.1464,0.0536,0.0,0.0
0.0559,-0.2406,-0.4963,0.0,0.0
-0.6375,-0.0563,0.323,0.0,0.0
0.3017,-0.1464,0.5376,0.0,0.0
-0.2645,0.316,-0.314,0.0,0.0
-0.0339,-0.1464,0.0099,0.0,0.0
-0.2667,-0.1464,-0.641,0.0,0.0
-0.4574,-0.1464,-0.6233,0.0,0.0
0.1328,-0.3006,0.6588,0.0,0.0
-0.2957,-0.1464,-0.1695,0.0,0.0
0.4152,-0.0278,-0.0563,0.0,0.0
-0.178,0.2452,-0.1306,0.0,0.0
-0.033,-0.1874,-0.5574,1.831266318537859,0.09605574006231382
-0.5375,0.1532,-0.2644,0.0,0.0
-0.2219,-0.1464,-0.6407,0.0,0.0
0.1616,0.1402,0.0495,0.0,0.0
-0.588,-0.1464,0.3386,0.0,0.0
0.4243,0.1251,0.5715,0.0,0.0
0.0247,0.0792,-0.4164,0.264686684073107,0.013883658027185261
-0.3061,-0.1464,0.023,0.0,0.0
-0.0947,0.2567,0.1916,0.0,0.0
-0.2548,0.308,-0.5374,0.0,0.0
-0.0776,-0.1464,-0.0086,0.0,0.0
0.2664,-0.1464,0.0877,0.0,0.0
0.3374,-0.1464,0.2534,0.5264360313315927,0.027613243400554655
-0.5388,0.1331,-0.5574,0.0,0.0
-0.6592,-0.2366,0.2886,0.0,0.0
-0.1617,0.3353,0.2876,0.0,0.0
0.5725,0.3301,0.2813,0.0,0.0
0.557,-0.0122,-0.0234,0.0,0.0
0.4379,0.1455,0.5465,0.0,0.0
0.557,0.1761,0.4259,0.2519582245430809,0.01321600986064984
0.0559,-0.3094,-0.2718,0.0,0.0
-0.6198,0.0858,-0.4205,0.0,0.0
-0.0946,-0.1464,-0.5366,0.0,0.0
-0.6592,-0.2808,-0.2729,0.2950391644908616,0.015475742116615876
-0.3431,0.03,0.6174,1.8351827676240213,0.09626117026740166
-0.2499,-0.1464,-0.212,0.0,0.0
-0.1483,-0.0783,-0.5574,0.7823107049608355,0.04103468346629232
-0.4657,0.1118,0.4238,0.0,0.0
0.083,-0.1464,0.3354,0.5244778067885116,0.02751052829801074
0.14,-0.3156,-0.0563,0.0,0.0
0.3608,-0.1464,0.461,0.0,0.0
-0.083,-0.1464,-0.6057,0.0,0.0
-0.4119,-0.1464,-0.0488,0.0,0.0
-0.6487,-0.1464,-0.6358,0.2529373368146214,0.013267367411921796
-0.3617,-0.1464,-0.423,0.0,0.0
0.4838,0.0217,-0.0563,0.0,0.0
0.2241,0.1924,0.1132,0.0,0.0
-0.2983,-0.1564,-0.5818,0.0,0.0
-0.6592,-0.0933,-0.2914,0.0,0.0
-0.2956,-0.1464,0.2109,0.0,0.0
0.0908,-0.1464,0.4469,0.0,0.0
-0.6592,-0.1621,0.254,0.0,0.0
0.2174,0.1994,0.4807,0.0,0.0
0.2851,-0.1464,0.5315,0.0,0.0
0.1926,0.0057,0.6588,0.0,0.0
0.6407,-0.1564,0.4179,0.0,0.0
0.3732,-0.3164,-0.0356,2.0822454308093996,0.1092203923716917
0.2784,0.1119,0.0149,0.0,0.0
-0.3769,-0.1464,0.0291,0.0,0.0
-0.46,-0.1106,0.5004,0.0,0.0
0.557,0.0839,0.3508,0.26566579634464754,0.013935015578457218
-0.2379,-0.1464,0.2374,0.0,0.0
-0.4849,-0.1082,-0.5574,0.0,0.0
0.0559,-0.2966,-0.5496,0.0,0.0
-0.2312,-0.1917,0.6588,0.0,0.0
0.0272,0.0771,-0.0852,0.0,0.0
0.2421,-0.1464,-0.0414,0.0,0.0
-0.3806,0.2818,-0.1172,0.0,0.0
0.0559,0.0067,-0.191,0.0,0.0
-0.2842,-0.1464,0.0195,0.0,0.0
-0.6072,-0.1464,-0.565,0.531331592689295,0.02787003115691443
-0.12,-0.1464,0.4395,0.0,0.0
-0.0531,-0.1464,0.2138,0.0,0.0
-0.3889,-0.1464,0.2126,0.0,0.0
-0.1314,-0.1564,-0.5647,0.0,0.0
0.38,-0.1464,0.3473,0.8097258485639687,0.04247269490190707
-0.6592,-0.3346,-0.1904,0.7901436031331592,0.04144554387646796
0.034,-0.1464,-0.1097,0.0,0.0
-0.0251,0.1199,-0.376,0.0,0.0
0.0084,0.0767,0.6305,0.0,0.0
-0.3119,0.1768,0.4981,0.0,0.0
0.557,0.2781,0.2985,0.0,0.0
-0.3431,0.3125,0.2912,0.0,0.0
0.346,-0.2424,-0.0563,0.0,0.0
-0.4506,0.2244,-0.5305,0.0,0.0
-0.6592,-0.1203,-0.4777,0.0,0.0
-0.0005,-0.1464,0.1408,0.0,0.0
-0.3452,0.3107,-0.2797,0.0,0.0
0.3732,-0.2275,-0.0222,0.0,0.0
0.3732,-0.1929,0.1316,0.516644908616188,0.0270996678878351
-0.5274,0.1615,-0.2924,0.0,0.0
-0.0056,0.1039,-0.1942,0.0,0.0
-0.479,0.2012,-0.3221,0.0,0.0
-0.5184,-0.1464,-0.2139,0.0,0.0
-0.3538,-0.1464,0.0023,0.0,0.0
-0.2952,-0.1464,0.1408,0.0,0.0
-0.6199,-0.1464,-0.6576,0.0,0.0
-0.1355,-0.1464,-0.365,0.0,0.0
-0.653,-0.1464,0.2853,0.0,0.0
-0.0042,0.229,0.4446,0.0,0.0
-0.4579,-0.2796,0.5026,0.0,0.0
0.6119,0.1146,0.0182,0.0,0.0
-0.0108,-0.1933,-0.5574,1.2999347258485638,0.06818570890539938
0.4047,-0.1464,0.3986,2.319516971279373,0.1216660389632622
0.4096,0.0231,0.6588,0.0,0.0
0.0162,-0.2836,-0.5574,0.891644908616188,0.046769610024993996
-0.3047,-0.1464,-0.1966,0.0,0.0
-0.2719,0.2493,0.4198,0.0,0.0
-0.2667,0.2645,0.4013,0.0,0.0
-0.1033,0.2409,0.1724,0.0,0.0
0.4659,0.0383,0.6588,0.26370757180156656,0.013832300475913306
0.6296,0.3298,0.3215,0.0,0.0
0.5679,0.3238,0.2815,0.0,0.0
-0.2203,0.2858,0.2272,0.0,0.0
-0.228,-0.1464,0.3839,0.0,0.0
-0.2066,0.2686,-0.4805,0.0,0.0
-0.4543,-0.1464,-0.1423,0.0,0.0
0.5852,-0.1564,0.3995,1.0597258485639687,0.055585989660013005
-0.1182,-0.1464,-0.1607,0.0,0.0
0.557,-0.0065,0.3635,0.0,0.0
0.6498,0.1607,0.0745,0.0,0.0
-0.0739,0.1267,-0.5574,0.0,0.0
-0.5491,-0.1366,0.4114,0.0,0.0
-0.2835,-0.1464,-0.3319,0.0,0.0
0.0296,-0.1464,0.3124,0.0,0.0
-0.0245,-0.1464,0.4903,0.0,0.0
-0.1482,0.2944,0.2378,0.0,0.0
0.1223,0.0805,0.6259,0.0,0.0
0.3732,-0.3125,0.2227,0.7823107049608355,0.04103468346629232
-0.3187,0.326,-0.6511,0.0,0.0
-0.2297,-0.3146,0.6588,0.0,0.0
-0.5373,-0.1464,-0.0526,0.0,0.0
-0.4299,0.2414,-0.6596,0.0,0.0
-0.0563,-0.2979,0.6588,0.0,0.0
0.3283,-0.1464,0.2764,0.26174934725848564,0.013729585373369395
-0.3162,0.3345,0.1112,0.0,0.0
0.0124,0.2061,0.4726,0.0,0.0
-0.0604,-0.1464,-0.0464,0.0,0.0
-0.1281,0.2043,-0.0139,0.0,0.0
-0.11,-0.3099,-0.5574,1.0401436031331595,0.054558838634573906
-0.6592,0.0153,0.1241,0.0,0.0
0.557,0.2477,0.2059,0.0,0.0
-0.1101,0.1896,0.0422,0.0,0.0
-0.4299,-0.2006,0.5305,1.8381201044386422,0.09641524292121749
0.0312,0.0738,-0.3488,0.264686684073107,0.013883658027185261
0.2388,0.0902,0.614,0.0,0.0
0.418,0.0484,0.6588,0.0,0.0
-0.2686,-0.1464,0.2698,0.0,0.0
0.2152,-0.2034,-0.0563,3.6674281984334205,0.1923682678809874
0.2412,-0.2897,-0.0563,1.5656005221932114,0.0821207244838566
-0.2378,0.2986,0.3596,0.0,0.0
-0.3443,-0.035,-0.5574,4.431135770234986,0.23242715787311255
-0.5298,-0.1464,0.3063,0.0,0.0
-0.3506,0.3064,-0.2861,0.0,0.0
-0.5817,0.1171,0.0653,0.0,0.0
-0.599,0.042,-0.5574,0.0,0.0
-0.5642,-0.1464,-0.011,0.0,0.0
-0.3831,0.2797,-0.4236,0.0,0.0
0.0559,-0.239,-0.3158,0.0,0.0
0.1423,0.1599,0.0735,0.0,0.0
-0.5785,0.1197,-0.4452,0.0,0.0
0.6008,-0.0927,-0.0513,0.5176240208877285,0.027151025439107062
-0.0442,-0.1464,0.2849,0.0,0.0
0.2785,0.1145,0.0181,0.0,0.0
-0.0311,0.1249,-0.218,0.0,0.0
-0.514,0.1725,-0.3359,0.0,0.0
-0.6592,-0.2782,-0.3922,0.0,0.0
0.3091,-0.1464,0.609,0.2715404699738903,0.014243160886088947
0.3653,-0.3137,0.6588,0.7565274151436031,0.03968226794946416
-0.1228,0.1999,-0.6595,0.0,0.0
0.557,-0.0748,0.1142,1.3028720626631853,0.06833978155921525
0.4095,-0.2186,0.6588,0.0,0.0
-0.3911,-0.1564,-0.5732,0.0,0.0
0.2027,0.0883,-0.0139,0.0,0.0
-0.281,0.3295,-0.1026,0.0,0.0
0.557,-0.1317,0.5783,0.0,0.0
-0.5097,-0.08,0.4508,1.8156005221932112,0.09523401924196251
-0.0268,-0.2662,0.6588,0.0,0.0
-0.1058,0.0459,0.6588,0.7872062663185377,0.04129147122265209
-0.5584,-0.0414,0.402,0.0,0.0
0.1058,-0.1464,0.5782,0.8058093994778067,0.04226726469681925
-0.1483,0.1599,-0.5574,0.0,0.0
0.0459,0.046,-0.5574,0.2686031331592689,0.014089088232273082
0.3431,-0.1464,0.4944,0.0,0.0
-0.3405,0.3081,-0.6119,0.0,0.0
0.4262,-0.0287,-0.0563,0.0,0.0
-0.5444,0.1476,-0.3267,0.0,0.0
-0.2781,0.3082,-0.5574,0.0,0.0
-0.5327,-0.1464,-0.0574,0.0,0.0
0.2221,-0.1464,0.5178,0.0,0.0
-0.4727,-0.3068,-0.5574,0.0,0.0
-0.5755,-0.1464,-0.1774,0.0,0.0
-0.6192,-0.0982,0.3413,0.0,0.0
0.2378,0.2555,0.1902,0.0,0.0
0.2996,0.0937,-0.0074,0.0,0.0
-0.0558,-0.1464,-0.1049,0.0,0.0
0.3732,-0.3292,0.6447,4.961488250652741,0.260245831478755
-0.6592,-0.1134,-0.0099,0.0,0.0
0.122,0.0992,0.6031,0.0,0.0
0.1266,-0.1464,0.0828,0.0,0.0
-0.3633,0.2959,-0.1258,0.0,0.0
0.1613,-0.1464,-0.0161,0.0,0.0
0.3151,0.0324,-0.0563,2.1155352480417755,0.11096654911493818
-0.6592,-0.2896,-0.6419,0.0,0.0
0.0565,0.3004,0.3575,0.0,0.0
-0.3344,-0.1464,-0.3815,0.0,0.0
0.6401,-0.1564,0.2227,2.1282637075718016,0.1116341972814736
-0.5886,-0.1464,0.2372,0.0,0.0
-0.1635,-0.1464,-0.561,0.266644908616188,0.013986373129729173
0.0537,0.3315,0.283,0.0,0.0
-0.6592,-0.2795,0.2551,0.0,0.0
-0.4301,0.2158,0.3323,0.0,0.0
0.0559,0.0017,-0.0741,0.5176240208877285,0.027151025439107062
0.0559,0.018,-0.0581,0.0,0.0
0.2002,-0.1464,0.0037,0.0,0.0
-0.6423,0.0674,-0.2313,0.0,0.0
-0.5225,0.1655,0.2826,0.0,0.0
-0.6592,-0.2868,-0.6173,0.0,0.0
-0.5793,0.1191,-0.1042,0.0,0.0
-0.6592,-0.2603,-0.3252,0.0,0.0
-0.6462,-0.1464,-0.4187,0.0,0.0
-0.1081,-0.0028,-0.5574,0.7823107049608355,0.04103468346629232
0.557,-0.04,0.088,2.096932114882507,0.10999075564077104
-0.2387,-0.1464,-0.1808,0.0,0.0
0.2994,-0.1464,0.4277,0.0,0.0
0.1158,0.3042,0.2496,0.0,0.0
0.2368,-0.1464,0.433,0.0,0.0
0.2821,-0.2918,-0.0563,1.31266318537859,0.0688533570719348
0.095,-0.1464,0.3315,0.5244778067885116,0.02751052829801074
0.0559,-0.0651,-0.1109,1.0362271540469974,0.05435340842948607
-0.0283,0.2936,0.2368,0.0,0.0
0.391,0.2314,0.1608,0.0,0.0
0.5133,0.0895,-0.0124,0.0,0.0
0.0559,-0.2025,-0.0757,0.0,0.0
-0.2127,-0.1464,0.1683,0.0,0.0
0.4232,-0.1464,0.115,0.0,0.0
-0.1205,0.198,0.0725,0.0,0.0
-0.3441,-0.1464,0.1217,0.0,0.0
-0.3343,0.3197,-0.4726,0.0,0.0
0.2161,0.2225,0.15,0.0,0.0
0.5966,-0.0902,0.6588,0.0,0.0
0.5225,-0.1464,0.6018,0.0,0.0
0.3674,-0.1464,0.0132,0.0,0.0
-0.6127,-0.1464,-0.4883,0.0,0.0
-0.6592,-0.0492,-0.1973,0.0,0.0
-0.6592,-0.1482,-0.6169,0.0,0.0
0.6362,-0.1036,0.6588,0.0,0.0
-0.0285,-0.1464,0.1365,0.0,0.0
0.1291,-0.1464,0.0698,0.0,0.0
-0.0198,-0.1464,-0.3363,0.0,0.0
-0.5311,-0.1464,-0.0896,0.7832898172323761,0.04108604101756428
0.3396,-0.0869,0.6588,0.0,0.0
0.5725,-0.1564,0.3135,4.971279373368146,0.2607594069914746
-0.0882,-0.304,-0.5574,0.2686031331592689,0.014089088232273082
-0.283,0.3312,-0.4326,0.0,0.0
-0.3991,-0.2693,0.5613,0.0,0.0
-0.2705,0.321,-0.3914,0.0,0.0
-0.4276,0.2432,-0.3148,0.0,0.0
-0.6254,-0.1464,-0.0246,0.0,0.0
-0.5874,-0.1464,-0.6267,0.0,0.0
0.5248,0.2046,0.1281,0.0,0.0
0.0275,-0.1464,0.1381,0.0,0.0
0.3289,-0.1464,0.3637,0.5372062663185379,0.028178176464546165
0.6286,0.0817,0.6166,2.107702349869452,0.11055568870476254
-0.2043,0.2667,-0.5309,0.7774151436031331,0.040777895709932545
0.1858,-0.2559,-0.0563,3.659595300261096,0.19195740747081172
0.0541,-0.1464,0.4505,0.0,0.0
0.0559,-0.1445,-0.3235,1.0499347258485638,0.05507241414729344
-0.0849,0.1689,-0.2902,0.0,0.0
-0.6592,-0.177,-0.2817,0.5665796344647519,0.029718903002704824
-0.6592,-0.2202,-0.2272,0.2862271540469974,0.01501352415516828
-0.0365,0.1293,-0.16,0.0,0.0
-0.0878,-0.1464,-0.1956,0.0,0.0
-0.3318,-0.1464,-0.1926,0.0,0.0
0.271,-0.1464,0.5974,0.0,0.0
-0.2056,-0.1464,0.2615,0.0,0.0
0.1505,-0.136,0.6588,0.0,0.0
0.2044,-0.1464,0.5592,0.0,0.0
0.4146,0.153,0.5374,0.0,0.0
-0.4691,0.1568,0.3653,0.0,0.0
0.572,-0.1564,0.4626,0.0,0.0
0.5426,0.2846,0.2258,0.0,0.0
-0.2409,0.2967,0.039,0.0,0.0
0.0559,-0.2889,-0.5437,0.0,0.0
0.4785,0.2936,0.2367,0.0,0.0
0.5804,-0.048,-0.0563,0.0,0.0
-0.6592,-0.0769,-0.6225,0.0,0.0
-0.0667,0.1886,0.1085,0.0,0.0
0.3216,0.3315,0.3194,0.0,0.0
-0.5593,0.1354,-0.2979,0.0,0.0
-0.4397,0.2333,-0.556,0.0,0.0
0.4024,0.3275,0.3244,0.0,0.0
0.2745,-0.1464,0.0238,0.0,0.0
0.6429,0.1876,0.4952,1.2969973890339426,0.06803163625158351
-0.1564,-0.1464,0.4475,0.0,0.0
-0.5645,0.1312,0.288,0.0,0.0
-0.4353,0.237,-0.1497,0.0,0.0
0.557,0.1616,0.5104,0.0,0.0
0.4903,0.1759,0.5095,0.0,0.0
-0.6592,-0.0917,-0.6259,0.26762402088772846,0.014037730681001127
-0.2814,-0.1464,0.6452,0.0,0.0
0.6007,0.1203,0.5694,0.0,0.0
-0.4767,0.203,-0.0292,0.0,0.0
-0.1194,-0.1464,0.454,0.0,0.0
-0.1014,-0.1866,-0.5574,0.0,0.0
-0.5777,-0.1464,-0.0163,0.0,0.0
0.3732,-0.2499,0.6588,2.071475195822454,0.10865545930770018
-0.6592,-0.1999,-0.175,0.0,0.0
-0.3301,0.3231,-0.0204,0.0,0.0
-0.2302,-0.1464,0.2548,0.0,0.0
-0.4633,-0.1464,-0.6574,0.0,0.0
0.0559,-0.1213,-0.1948,0.2519582245430809,0.01321600986064984
0.0559,-0.0387,-0.1435,0.0,0.0
0.1381,-0.0057,-0.0563,0.0,0.0
0.3732,-0.2215,0.3628,2.85476501305483,0.14974150032526445
-0.3454,0.3106,-0.1628,0.0,0.0
-0.4593,-0.1464,0.4768,0.0,0.0
-0.1314,0.207,-0.3103,0.0,0.0
-0.278,-0.2133,0.6588,0.0,0.0
-0.1102,-0.1464,0.5676,0.0,0.0
-0.4434,-0.1464,-0.2224,0.0,0.0
0.3732,-0.3173,0.4111,0.0,0.0
-0.6592,-0.1469,0.2098,0.0,0.0
-0.3269,-0.1464,0.4263,2.4350522193211486,0.12772623001335293
-0.6016,-0.3249,0.3588,0.0,0.0
-0.3017,0.3464,-0.5017,0.0,0.0
-0.3351,-0.1464,0.193,0.0,0.0
-0.0338,-0.2745,-0.5574,0.26370757180156656,0.013832300475913306
0.5382,0.3409,0.308,0.0,0.0
0.0868,-0.3109,-0.0563,0.0,0.0
-0.5238,-0.1464,-0.1955,0.0,0.0
-0.2653,-0.1464,0.1516,0.0,0.0
-0.5358,-0.1464,-0.0459,0.0,0.0
-0.1866,-0.1464,0.3757,0.0,0.0
-0.435,0.2372,0.0014,0.0,0.0
0.0136,0.0882,-0.5899,0.0,0.0
0.0871,-0.1464,0.159,0.0,0.0
-0.0869,-0.234,-0.5574,0.0,0.0
-0.6542,0.0308,-0.6342,0.0,0.0
-0.1851,0.251,-0.3036,0.0,0.0
-0.3068,0.3422,-0.2353,0.0,0.0
0.3652,-0.0696,0.6588,0.0,0.0
-0.5096,-0.1464,-0.0776,1.033289817232376,0.0541993357756702
0.0559,-0.1794,-0.1606,0.0,0.0
-0.4165,0.2355,0.3219,0.0,0.0
0.0076,-0.1464,-0.4627,0.0,0.0
0.0509,-0.0985,-0.6016,3.0124020887728458,0.15801006608004928
-0.5661,-0.1464,-0.4607,0.0,0.0
-0.5927,-0.1464,0.3652,0.0,0.0
0.4626,0.0461,0.6588,0.26370757180156656,0.013832300475913306
-0.4259,0.0779,0.5048,0.0,0.0
0.2224,0.2416,0.4292,0.0,0.0
-0.2809,0.0209,-0.5574,0.0,0.0
-0.2679,0.3188,0.1947,0.0,0.0
0.4407,0.1945,0.1157,0.0,0.0
-0.459,-0.1464,-0.0595,0.2823107049608355,0.014808093950080457
0.3132,0.185,0.4984,0.0,0.0
-0.3201,0.3313,-0.5432,0.0,0.0
-0.006,-0.1464,-0.2356,0.0,0.0
0.0339,-0.1464,-0.1776,0.0,0.0
0.1801,0.1496,0.061,0.0,0.0
-0.0024,-0.1464,-0.4302,0.0,0.0
-0.2425,-0.1464,-0.2377,0.0,0.0
-0.4566,0.2195,-0.2576,0.0,0.0
0.557,0.1324,0.1267,0.0,0.0
-0.2274,-0.299,0.6588,0.0,0.0
-0.1272,-0.1464,-0.1104,0.0,0.0
-0.0743,-0.1464,0.0401,0.0,0.0
0.1184,-0.2637,-0.0563,0.2529373368146214,0.013267367411921796
0.5147,0.1139,0.0173,0.0,0.0
-0.2889,-0.1464,-0.414,0.0,0.0
-0.6592,-0.1965,-0.5428,0.0,0.0
0.0559,-0.111,-0.4835,0.0,0.0
-0.1027,-0.0424,-0.5574,0.5274151436031331,0.02766460095182661
-0.2353,-0.1464,-0.1573,0.0,0.0
-0.0544,-0.1464,-0.0067,0.0,0.0
-0.6592,-0.2715,-0.1484,0.5626631853785901,0.029513472797617003
0.0591,0.0657,-0.0415,0.0,0.0
0.4029,-0.1464,0.0798,0.0,0.0
0.3276,-0.1464,0.5332,0.0,0.0
-0.0735,-0.1464,-0.5111,0.0,0.0
-0.4363,-0.1464,0.506,0.0,0.0
-0.122,-0.1464,-0.1364,0.0,0.0
0.557,-0.1105,0.5171,0.0,0.0
0.1133,0.2084,0.4697,0.0,0.0
-0.416,0.067,0.5281,0.0,0.0
0.4002,0.0909,-0.0107,0.0,0.0
0.4939,-0.091,-0.0563,0.25097911227154046,0.013164652309377887
-0.4941,-0.1464,0.0645,0.0,0.0
-0.5449,0.1472,0.2504,0.0,0.0
-0.3302,0.0027,-0.5574,0.0,0.0
0.0559,-0.3332,-0.0664,0.0,0.0
-0.4893,-0.1464,0.1495,0.0,0.0
0.0055,-0.1464,-0.1915,0.0,0.0
-0.5836,0.1155,-0.1857,0.0,0.0
-0.3949,-0.1464,-0.3151,0.0,0.0
0.0056,0.0947,-0.054,0.0,0.0
-0.3098,-0.1464,0.2285,0.0,0.0
0.5003,-0.0619,0.6588,0.0,0.0
0.557,0.2383,0.3056,0.0,0.0
-0.6059,-0.1464,-0.3577,0.0,0.0
-0.4141,-0.1464,-0.1383,0.0,0.0
-0.4673,-0.1464,0.2006,0.0,0.0
0.557,0.2559,0.317,0.0,0.0
-0.6542,-0.3029,-0.6328,0.0,0.0
-0.527,0.1618,0.1506,0.0,0.0
-0.2505,0.3046,-0.3513,0.0,0.0
-0.3411,-0.3234,-0.5574,0.0,0.0
-0.6542,0.0324,-0.6465,0.0,0.0
-0.0977,0.1749,0.5106,0.0,0.0
0.2013,-0.1464,0.1869,0.0,0.0
-0.0252,0.12,-0.3511,0.0,0.0
-0.6592,-0.0487,0.0019,0.0,0.0
0.557,0.044,0.4855,0.0,0.0
-0.0046,0.1424,0.5503,0.0,0.0
-0.6531,-0.1339,0.3074,0.0,0.0
-0.3415,-0.1319,-0.5574,0.0,0.0
-0.5962,0.0987,-0.6452,0.0,0.0
-0.5682,0.1181,0.3134,0.0,0.0
0.2772,-0.1464,0.0812,0.0,0.0
-0.5835,-0.0577,0.377,0.0,0.0
-0.516,-0.1464,-0.1631,0.0,0.0
-0.5518,0.0199,0.4086,1.3028720626631853,0.06833978155921525
-0.1396,-0.1464,-0.5317,0.0,0.0
-0.185,-0.1464,0.4362,0.0,0.0
0.5365,-0.0049,-0.0563,0.0,0.0
0.598,-0.1564,0.148,0.5303524804177546,0.027818673605642483
-0.5405,-0.208,0.4199,0.0,0.0
0.0479,0.2763,0.2156,0.0,0.0
-0.1406,0.0952,-0.5574,0.0,0.0
-0.1794,-0.1564,-0.6387,0.0,0.0
-0.1492,0.1119,-0.5574,0.0,0.0
-0.099,0.2704,0.2084,0.0,0.0
-0.2311,-0.0583,0.6588,1.0342689295039165,0.05425069332694216
0.594,-0.1564,0.2531,1.8058093994778068,0.09472044372924297
-0.5446,-0.1464,-0.5554,0.0,0.0
-0.5791,-0.1464,0.2109,0.0,0.0
-0.1332,-0.1464,-0.1788,0.0,0.0
-0.1407,-0.1464,-0.4344,0.0,0.0
-0.5306,-0.1464,-0.4884,0.0,0.0
-0.5275,0.1615,-0.5933,0.0,0.0
-0.6592,-0.1888,-0.5653,0.0,0.0
-0.1491,0.215,-0.5587,0.0,0.0
0.4905,0.2523,0.1864,0.0,0.0
-0.3094,-0.1464,0.1997,0.0,0.0
0.3323,-0.1464,0.4414,0.0,0.0
-0.2376,-0.1464,0.4399,0.0,0.0
-0.3565,0.1296,-0.5574,0.0,0.0
-0.1168,0.195,-0.3706,0.0,0.0
0.0179,-0.1464,-0.3904,0.0,0.0
-0.4458,0.2284,-0.4518,0.0,0.0
-0.4098,0.2578,0.0443,0.0,0.0
0.3732,-0.2816,-0.0088,0.0,0.0
0.1009,-0.1464,0.6492,0.0,0.0
-0.5789,-0.1464,0.0615,0.26370757180156656,0.013832300475913306
0.0509,0.0353,-0.6208,0.0,0.0
0.3512,-0.1464,0.4965,0.266644908616188,0.013986373129729173
-0.3332,0.2089,-0.5574,0.0,0.0
-0.5695,0.1236,0.3054,0.0,0.0
0.6041,-0.0151,0.6538,0.0,0.0
-0.2704,0.3209,0.2633,0.0,0.0
-0.3378,-0.1564,-0.6344,0.0,0.0
0.3026,-0.1464,0.109,0.0,0.0
-0.2368,-0.1407,0.6588,0.0,0.0
-0.0751,-0.1464,-0.0167,0.0,0.0
0.557,0.1018,0.1064,0.0,0.0
-0.4696,-0.1464,-0.5727,0.0,0.0
-0.5078,0.1776,0.2556,0.0,0.0
0.0768,-0.1464,0.0137,0.0,0.0
-0.2625,0.2323,0.4406,0.0,0.0
0.3732,-0.3256,0.4509,0.0,0.0
-0.3151,0.3354,-0.4533,0.0,0.0
-0.6125,-0.1464,-0.482,0.0,0.0
0.6328,0.0105,0.6538,0.7832898172323759,0.04108604101756427
-0.2464,0.3012,0.0659,0.0,0.0
-0.4142,0.2542,-0.2878,0.0,0.0
-0.4589,0.2176,-0.1273,0.0,0.0
0.3732,-0.2837,0.6061,1.5509138381201044,0.08135036121477726
-0.5667,-0.1971,-0.5574,0.0,0.0
-0.1876,-0.1464,-0.3897,0.0,0.0
-0.3088,-0.1464,-0.2347,0.0,0.0
-0.3985,0.2671,-0.5235,0.0,0.0
-0.6592,-0.0463,-0.5361,0.0,0.0
-0.094,0.1764,-0.5661,0.0,0.0
0.6014,0.1794,0.5052,1.0509138381201044,0.0551237716985654
-0.0288,-0.2272,-0.5574,0.0,0.0
-0.472,-0.1464,-0.4544,0.0,0.0
0.1684,0.1504,0.062,0.0,0.0
0.1795,-0.1464,0.2065,0.0,0.0
-0.5267,0.1551,0.3098,0.0,0.0
0.557,-0.1472,0.0761,0.266644908616188,0.013986373129729173
-0.1888,0.254,0.0453,0.0,0.0
-0.1007,-0.1464,0.1891,0.0,0.0
0.5226,0.0833,-0.02,0.0,0.0
-0.1058,0.2814,0.2219,0.0,0.0
-0.0317,0.0924,0.6114,0.0,0.0
0.567,0.1245,0.0382,0.0,0.0
-0.3948,0.2702,0.1263,0.0,0.0
-0.6592,-0.1124,-0.3236,0.0,0.0
-0.3415,0.3138,-0.6414,0.0,0.0
0.047,0.0609,-0.189,0.0,0.0
-0.1919,-0.1464,0.565,0.0,0.0
-0.4863,0.1952,0.238,0.0,0.0
-0.5559,-0.1464,-0.4628,0.0,0.0
0.6255,-0.075,0.6588,0.0,0.0
-0.2878,-0.1464,-0.0481,0.0,0.0
-0.5047,0.1801,0.2636,0.0,0.0
0.1214,0.2252,0.4493,0.0,0.0
0.1661,-0.2946,-0.0563,1.1863577023498693,0.06222823295785255
-0.1407,0.3411,0.3077,0.0,0.0
-0.2518,0.2992,-0.6122,0.0,0.0
-0.6592,-0.0035,0.2519,0.0,0.0
-0.6542,0.0401,-0.5676,0.0,0.0
0.3872,0.0738,-0.0316,0.0,0.0
-0.2379,-0.1464,-0.138,0.0,0.0
-0.4294,-0.2097,0.531,1.8381201044386422,0.09641524292121749
0.4377,-0.104,-0.0563,2.5969321148825064,0.1362173451569829
-0.0583,0.1471,-0.6183,0.0,0.0
-0.6592,-0.0543,0.1263,0.0,0.0
-0.6163,-0.0778,0.3442,0.0,0.0
0.3732,-0.2264,0.0744,0.0,0.0
-0.03,-0.1464,-0.6489,0.0,0.0
-0.2897,-0.1464,0.2333,0.0,0.0
-0.6592,-0.3285,-0.1833,0.8038511749347259,0.04216454959427534
-0.0139,0.1108,-0.1138,0.0,0.0
-0.1779,-0.1464,0.4136,0.0,0.0
0.0442,0.1697,0.517,0.0,0.0
-0.3162,-0.0721,0.6442,0.264686684073107,0.013883658027185261
-0.6102,0.0937,-0.3047,0.0,0.0
-0.2256,-0.1464,-0.1464,0.0,0.0
0.0559,-0.0448,-0.5325,0.0,0.0
0.3125,0.3049,0.3519,0.0,0.0
-0.2797,0.2823,-0.5574,0.0,0.0
-0.329,-0.1464,-0.616,0.0,0.0
-0.3012,0.3461,-0.3398,0.0,0.0
-0.5791,-0.1464,-0.6349,0.0,0.0
-0.564,-0.1464,-0.3757,0.0,0.0
0.5033,0.2265,0.1549,0.0,0.0
-0.596,-0.1298,-0.5574,0.531331592689295,0.02787003115691443
0.3101,-0.0126,-0.0563,1.7408616187989556,0.0913137261615366
-0.2839,0.3319,0.1041,0.0,0.0
0.0559,0.0312,-0.6582,0.0,0.0
-0.6592,-0.2399,-0.5777,0.0,0.0
-0.2632,0.2318,0.4413,0.0,0.0
0.2054,0.2552,0.1898,0.0,0.0
0.3732,-0.2955,-0.0103,0.779373368146214,0.04088061081247645
0.0866,-0.1596,0.6588,0.0,0.0
-0.6084,0.0661,0.3368,0.0,0.0
-0.5866,-0.1464,-0.542,0.531331592689295,0.02787003115691443
-0.5854,0.1141,-0.5436,0.0,0.0
0.0138,-0.2139,0.6588,0.0,0.0
0.3333,0.1864,0.1058,0.0,0.0
-0.2873,0.207,0.4715,0.0,0.0
-0.1574,0.2283,-0.5835,0.0,0.0
0.0762,-0.1464,0.4681,0.0,0.0
-0.6592,-0.0343,-0.0948,0.0,0.0
-0.0154,-0.1464,-0.526,0.0,0.0
-0.3529,0.298,-0.5787,0.0,0.0
-0.5704,0.1181,-0.5574,0.0,0.0
0.3486,-0.1464,0.5527,0.0,0.0
-0.0761,-0.3231,-0.5574,0.0,0.0
0.2655,0.2513,0.4174,0.0,0.0
0.2136,-0.1464,0.4097,0.0,0.0
0.1783,0.221,0.4544,0.0,0.0
-0.6592,-0.2649,0.1052,0.0,0.0
-0.6592,-0.2876,-0.6359,0.0,0.0
0.2672,-0.1464,0.089,0.0,0.0
-0.2805,0.3291,-0.6264,0.0,0.0
-0.1444,-0.1464,0.2695,0.0,0.0
0.557,0.2461,0.3548,0.0,0.0
0.639,-0.2876,0.6588,0.0,0.0
-0.0501,-0.1564,-0.657,0.0,0.0
0.5418,-0.1464,0.6099,0.0,0.0
0.0283,-0.1464,-0.5495,0.0,0.0
-0.0837,-0.1464,-0.1783,0.0,0.0
0.2279,-0.1464,0.1604,0.0,0.0
0.6251,-0.1564,-0.0191,0.0,0.0
-0.371,-0.1464,0.4756,0.0,0.0
-0.1048,-0.1567,-0.5574,0.0,0.0
0.4433,0.2384,0.4332,0.0,0.0
-0.397,-0.0291,-0.5574,2.6263054830287205,0.13775807169514154
-0.2061,-0.103,0.6588,0.0,0.0
0.2882,0.0733,0.6347,0.0,0.0
-0.2862,-0.1464,0.1149,0.0,0.0
-0.6018,-0.1667,-0.5574,0.531331592689295,0.02787003115691443
0.0933,-0.1464,0.502,1.5871409921671016,0.0832505906118396
-0.6373,-0.0825,-0.5574,0.0,0.0
0.3819,-0.2299,0.6393,1.1615535248041775,0.06092717499229636
-0.4954,-0.1464,0.3964,0.0,0.0
-0.0243,-0.1464,0.459,0.0,0.0
-0.5696,0.1269,-0.157,0.0,0.0
0.1858,-0.1464,0.6082,2.6546997389033944,0.13924744068202827
-0.3901,-0.0733,-0.5574,2.082245430809399,0.10922039237169168
0.0221,-0.1464,-0.1618,0.0,0.0
-0.3554,-0.1464,0.066,0.0,0.0
-0.3573,-0.1464,-0.0541,0.0,0.0
-0.2731,0.1432,0.5494,0.0,0.0
-0.4846,0.1901,-0.5818,0.0,0.0
0.5902,-0.1464,0.0582,0.0,0.0
0.1134,-0.1201,0.6588,0.0,0.0
0.1038,-0.1464,0.149,0.0,0.0
-0.0964,-0.1464,-0.2046,0.0,0.0
0.1102,0.1092,0.0116,0.0,0.0
-0.3389,0.0339,-0.5574,0.26370757180156656,0.013832300475913306
0.6091,0.248,0.1889,0.0,0.0
-0.5568,-0.0692,-0.5574,2.613577023498695,0.13709042352860615
-0.4415,-0.1914,-0.5574,0.0,0.0
0.2991,-0.1464,0.439,0.0,0.0
-0.5039,0.1808,0.2543,0.0,0.0
0.3258,0.2208,0.1479,0.0,0.0
-0.1766,-0.1464,-0.3733,0.0,0.0
0.557,-0.094,0.4142,0.0,0.0
-0.6592,-0.1924,-0.3764,0.0,0.0
0.557,-0.0383,0.5431,6.263381201044387,0.3285342554866984
-0.0097,-0.1464,0.0443,0.0,0.0
-0.3155,-0.1464,-0.3103,0.0,0.0
0.1317,-0.1464,-0.0436,2.360639686684073,0.12382305611668433
0.1441,-0.1464,0.1699,0.0,0.0
0.557,-0.0978,0.0473,0.0,0.0
-0.533,-0.1464,-0.1459,0.0,0.0
0.557,0.2562,0.407,0.0,0.0
0.1584,0.3315,0.283,0.0,0.0
0.045,-0.1464,0.2732,0.0,0.0
-0.3775,-0.1464,-0.1756,0.0,0.0
-0.1738,-0.1464,-0.5618,0.266644908616188,0.013986373129729173
0.1221,-0.1464,-0.051,3.3812010443864224,0.1773547437258191
-0.0006,0.0739,-0.5574,0.0,0.0
-0.0211,-0.2272,0.6588,0.0,0.0
-0.6559,0.0563,-0.6211,0.0,0.0
0.3732,-0.1683,0.2212,0.5332898172323759,0.02797274625945834
-0.3987,-0.1464,-0.5063,0.0,0.0
-0.3954,0.2697,-0.5135,0.0,0.0
-0.1747,-0.1464,0.1626,0.0,0.0
0.0845,0.2544,0.4136,0.0,0.0
0.656,-0.1564,-0.0458,0.0,0.0
-0.2492,0.3035,-0.3215,0.0,0.0
-0.1501,-0.1464,-0.3771,0.0,0.0
0.6403,-0.026,-0.0513,0.0,0.0
0.1494,-0.0717,-0.0563,0.26370757180156656,0.013832300475913306
0.0999,0.1369,0.5571,0.0,0.0
-0.1372,0.3375,0.3121,0.0,0.0
0.4486,0.2059,0.4728,0.0,0.0
0.3502,-0.1464,0.3075,0.25097911227154046,0.013164652309377887
-0.6005,0.1017,0.2434,0.0,0.0
-0.1472,-0.3121,-0.5574,0.0,0.0
0.0295,0.1055,0.0071,0.0,0.0
-0.1637,-0.1464,-0.5301,0.0,0.0
-0.6592,-0.2837,-0.3899,0.0,0.0
-0.6592,-0.217,0.2762,0.0,0.0
-0.1701,-0.1464,0.3843,0.0,0.0
-0.6592,-0.0695,0.2529,0.0,0.0
0.6163,-0.1713,0.6588,0.0,0.0
0.5312,-0.2193,0.6588,0.0,0.0
0.6248,-0.1464,0.0788,1.5695169712793735,0.08232615468894443
-0.1499,0.1604,0.5284,0.0,0.0
-0.3762,0.2854,0.0955,0.0,0.0
-0.2777,0.3268,-0.5021,0.0,0.0
-0.1953,-0.1521,0.6588,0.0,0.0
-0.3334,0.314,-0.5924,0.0,0.0
-0.6012,0.1011,-0.2507,0.0,0.0
-0.6242,-0.2116,0.3362,0.0,0.0
-0.3477,0.193,0.4425,0.0,0.0
0.6477,-0.2443,0.6588,0.2793733681462141,0.014654021296264592
-0.6592,-0.0351,-0.5821,0.0,0.0
-0.6388,0.0703,-0.5702,0.0,0.0
-0.3429,0.3126,-0.5237,0.0,0.0
-0.386,-0.1464,0.2171,0.0,0.0
0.33,-0.1464,0.4023,0.0,0.0
-0.6578,-0.1464,-0.5223,0.0,0.0
-0.1555,-0.0765,0.6588,0.0,0.0
0.2518,0.0081,-0.0563,2.1125979112271542,0.11081247646112233
-0.5712,-0.1464,0.1074,0.2519582245430809,0.01321600986064984
0.044,-0.1464,0.1072,0.0,0.0
-0.1733,-0.1464,-0.2572,0.0,0.0
-0.0188,-0.1835,-0.5574,1.329308093994778,0.06972643544355803
-0.3073,-0.2337,0.6531,0.0,0.0
0.3591,-0.1464,0.2136,0.0,0.0
-0.3128,0.3373,-0.4928,0.0,0.0
-0.0722,-0.1464,-0.3568,0.0,0.0
-0.517,-0.1464,-0.5338,0.0,0.0
-0.6592,-0.2582,-0.5883,0.0,0.0
-0.1863,-0.1464,-0.0269,0.0,0.0
-0.5845,-0.1464,0.315,0.0,0.0
-0.5644,-0.1464,-0.5428,0.0,0.0
-0.6038,0.0989,-0.3049,0.0,0.0
-0.2429,-0.1464,-0.4848,0.0,0.0
-0.1858,-0.1464,-0.0511,0.0,0.0
-0.4527,-0.2007,0.5077,0.0,0.0
0.0559,-0.0286,-0.5456,0.397845953002611,0.02086828500017119
-0.4826,0.1982,-0.44,0.0,0.0
-0.0057,0.1041,-0.3594,0.0,0.0
-0.3398,-0.1464,-0.1676,0.0,0.0
0.5393,0.3084,0.2548,0.0,0.0
0.0234,0.1844,0.1034,3.9135117493472587,0.20527613243400553
-0.578,-0.2619,-0.5574,0.0,0.0
-0.2441,-0.1464,0.276,0.0,0.0
0.557,0.2552,0.2828,0.0,0.0
0.1292,-0.1464,0.1222,0.0,0.0
0.1053,-0.0766,0.6588,0.0,0.0
-0.2596,0.312,0.189,0.0,0.0
-0.0487,0.2154,0.4612,0.0,0.0
-0.3154,0.3352,-0.5276,0.0,0.0
-0.1475,-0.1464,0.5825,0.0,0.0
0.5781,-0.1184,-0.0563,0.0,0.0
-0.6099,-0.2671,0.3506,0.0,0.0
-0.3175,-0.1464,-0.3923,0.0,0.0
0.0559,-0.2431,-0.5474,0.0,0.0
-0.1712,-0.1464,-0.5112,0.0,0.0
-0.4882,0.1936,-0.5063,0.0,0.0
-0.1714,-0.1464,0.6504,0.0,0.0
0.3826,0.158,0.5313,0.0,0.0
-0.5078,-0.1464,-0.1658,0.0,0.0
-0.179,-0.1521,-0.5574,0.266644908616188,0.013986373129729173
0.1677,-0.3068,0.6588,0.0,0.0
0.5361,0.2709,0.3935,0.0,0.0
0.0904,-0.0944,0.6588,0.0,0.0
0.1425,-0.1464,0.0778,0.0,0.0
-0.099,-0.1464,-0.5195,0.0,0.0
-0.197,-0.0903,0.6588,0.0,0.0
0.0559,-0.077,-0.5937,1.695822454308094,0.08895127880302665
-0.252,0.3057,-0.2428,0.0,0.0
-0.6474,-0.0406,0.3131,0.0,0.0
-0.0952,-0.1464,-0.6563,0.0,0.0
-0.0938,0.2007,0.1233,0.0,0.0
0.4623,-0.124,0.6588,0.0,0.0
-0.3707,-0.282,0.5897,0.0,0.0
0.6255,0.2484,0.1895,0.0,0.0
-0.1038,-0.1464,0.2527,0.0,0.0
-0.3137,-0.1464,-0.14,0.0,0.0
-0.0256,0.1203,-0.4645,0.0,0.0
-0.6238,-0.0292,-0.5574,0.0,0.0
0.005,-0.1464,0.095,0.0,0.0
-0.6489,-0.1464,-0.3585,0.0,0.0
-0.4003,0.2656,-0.6002,0.0,0.0
0.029,-0.1464,0.5055,0.0,0.0
0.3144,-0.1464,-0.0046,0.0,0.0
0.0559,-0.2997,-0.2282,0.0,0.0
-0.5697,-0.2663,0.3908,0.0,0.0
-0.2232,0.155,0.535,0.0,0.0
0.1945,-0.1464,0.0618,0.0,0.0
-0.582,-0.1464,0.0058,0.0,0.0
0.0559,0.0346,-0.4805,0.0,0.0
-0.0078,0.1057,-0.6452,0.26762402088772846,0.014037730681001127
-0.3239,-0.1464,-0.2818,0.0,0.0
0.0619,-0.1464,0.0787,0.0,0.0
-0.6592,-0.2179,-0.5777,0.0,0.0
-0.5107,-0.1464,0.3721,0.0,0.0
-0.1716,-0.3376,-0.5574,0.0,0.0
-0.2692,0.2177,-0.5574,0.0,0.0
-0.231,-0.1464,0.3255,0.0,0.0
-0.1159,-0.1464,-0.2049,0.0,0.0
-0.1344,-0.1464,-0.0013,0.0,0.0
-0.6592,-0.1929,0.1244,0.0,0.0
0.0055,-0.1464,-0.3953,0.0,0.0
0.0559,-0.0978,-0.6349,3.398825065274151,0.1782791796487143
0.1743,-0.1464,0.5017,0.0,0.0
-0.2003,-0.0336,0.6588,0.0,0.0
-0.1622,-0.1464,-0.3236,0.0,0.0
0.3732,-0.2965,0.3422,1.564621409921671,0.08206936693258464
0.126,0.1172,0.5811,0.0,0.0
-0.1573,-0.1464,0.1102,0.0,0.0
-0.5594,0.1301,-0.5574,0.0,0.0
-0.1491,-0.1464,-0.1104,0.0,0.0
-0.4001,-0.1464,0.4685,0.0,0.0
0.4672,0.0296,-0.0563,0.0,0.0
-0.1595,0.23,-0.3095,0.0,0.0
0.1936,0.3207,0.2698,0.0,0.0
0.12,0.2857,0.3754,0.0,0.0
-0.3925,-0.1464,0.0992,0.36161879895561355,0.018968055603108838
0.6286,0.2705,0.2086,0.0,0.0
0.1667,0.2104,0.4674,0.0,0.0
0.0419,0.0651,-0.6132,0.0,0.0
0.0246,0.1073,0.0093,0.0,0.0
0.557,0.2503,0.2022,0.0,0.0
0.5711,0.3015,0.2464,0.0,0.0
0.0386,0.0677,-0.1228,0.0,0.0
0.2375,-0.0638,-0.0563,1.1742819843342036,0.061594823158831774
-0.4334,-0.1464,0.3225,0.0,0.0
-0.2624,0.1953,0.4858,0.0,0.0
-0.5074,-0.1464,0.0981,0.2627284595300261,0.01378094292464135
0.0428,-0.0561,-0.5574,0.8077676240208878,0.04236997979936316
-0.4551,-0.1464,0.1587,0.0,0.0
-0.6409,-0.1464,-0.2013,0.0,0.0
0.1858,-0.1464,0.3026,0.0,0.0
-0.3817,-0.1464,0.4959,0.0,0.0
-0.5022,-0.0863,0.4582,1.5636422976501305,0.08201800938131268
0.2036,-0.3032,-0.0563,0.0,0.0
-0.3482,-0.1464,-0.4167,0.0,0.0
-0.6226,-0.1425,0.3378,0.0,0.0
0.0161,-0.1464,0.1328,0.0,0.0
-0.4692,-0.2635,0.4912,0.0,0.0
0.0949,-0.1464,0.5459,1.044060052219321,0.05476426883966171
-0.6592,-0.1396,0.2912,0.0,0.0
-0.2622,0.1475,0.5442,0.0,0.0
-0.6592,-0.1232,-0.5812,0.0,0.0
0.5948,0.29,0.3623,0.0,0.0
0.1785,0.2224,0.4526,0.0,0.0
-0.532,0.1578,-0.0514,0.0,0.0
-0.5179,0.1693,-0.4767,0.0,0.0
-0.3814,0.2811,-0.6174,0.0,0.0
-0.4879,-0.2743,0.4726,0.0,0.0
0.5871,-0.1564,0.0789,0.0,0.0
0.6162,-0.1019,0.6538,0.0,0.0
0.3297,-0.1464,0.2085,0.0,0.0
0.1701,-0.1464,0.1387,0.0,0.0
0.0559,-0.1683,-0.4368,0.0,0.0
-0.328,-0.1464,-0.3293,0.0,0.0
0.0509,-0.0566,-0.5921,0.0,0.0
0.6316,-0.1464,0.0688,1.3058093994778066,0.0684938542130311
0.2411,0.098,-0.0021,0.0,0.0
0.2989,-0.0099,-0.0563,1.4742167101827677,0.07732735303180743
0.1231,0.2577,0.4096,0.0,0.0
0.3732,-0.2294,0.0828,0.0,0.0
-0.4334,0.2338,0.3069,0.0,0.0
-0.5922,-0.1618,-0.5574,0.531331592689295,0.02787003115691443
-0.4116,0.1998,0.3703,0.0,0.0
-0.1295,-0.1464,-0.5165,0.0,0.0
0.1169,-0.1464,0.4355,0.2793733681462141,0.014654021296264592
-0.2292,-0.1464,0.3424,0.0,0.0
-0.5824,-0.1464,-0.3767,0.0,0.0
0.615,0.2725,0.2109,0.0,0.0
-0.5028,-0.2962,0.4576,0.0,0.0
0.3003,-0.1464,0.2113,0.39490861618798956,0.020714212346355322
0.1351,-0.1464,-0.0513,2.6116187989556137,0.13698770842606223
0.0559,0.0066,-0.4568,0.0,0.0
0.6558,-0.1464,0.4677,5.032963446475195,0.26399493272160773
-0.6592,-0.1068,-0.3735,0.0,0.0
0.1429,0.149,0.5423,0.0,0.0
-0.5171,0.1699,-0.2784,0.0,0.0
-0.3146,0.1141,0.5719,0.0,0.0
0.1576,-0.3383,0.6588,0.0,0.0
0.0521,-0.1464,0.2036,0.0,0.0
-0.1533,0.2249,-0.4581,0.0,0.0
0.5719,-0.1464,0.062,0.0,0.0
-0.6431,0.0667,-0.1527,0.0,0.0
-0.6592,-0.0995,-0.3139,0.0,0.0
-0.2445,0.0579,0.6535,0.0,0.0
0.4183,-0.1464,0.3564,0.0,0.0
0.5633,-0.1564,0.1258,0.7803524804177545,0.040931968363748406
-0.3692,-0.1464,0.0414,0.0,0.0
-0.6268,-0.2581,0.3337,0.0,0.0
-0.4023,0.2002,0.3792,0.0,0.0
-0.0089,-0.1464,0.3403,0.0,0.0
0.495,0.1678,0.5193,0.0,0.0
0.0559,-0.3245,-0.2754,0.0,0.0
-0.3464,0.3098,-0.1788,0.0,0.0
0.3171,0.2513,0.4174,0.0,0.0
-0.3118,-0.3042,0.6486,0.0,0.0
-0.1893,-0.1464,0.1526,0.0,0.0
-0.0278,0.2326,0.4402,0.0,0.0
0.6184,-0.2294,0.6588,1.7447780678851175,0.09151915636662443
-0.3693,-0.1464,0.0948,0.0,0.0
-0.0195,0.1153,-0.0538,0.0,0.0
0.5735,-0.0221,-0.0513,0.0,0.0
-0.1108,0.1902,-0.079,0.0,0.0
-0.5703,-0.1526,-0.5574,0.531331592689295,0.02787003115691443
0.572,0.167,0.09,0.0,0.0
0.0559,-0.2823,-0.1267,0.0,0.0
0.058,-0.1464,0.3184,0.0,0.0
0.557,-0.0117,0.2511,0.0,0.0
-0.2069,0.2689,-0.6207,0.0,0.0
-0.3081,0.1298,0.5593,0.0,0.0
-0.6592,-0.1856,-0.4264,0.0,0.0
-0.595,-0.1464,-0.1254,0.0,0.0
0.3929,-0.1464,0.2824,0.7921018276762402,0.04154825897901187
0.4721,0.2571,0.1922,0.0,0.0
-0.6269,-0.0598,0.3336,0.0,0.0
0.3413,-0.1464,0.1367,0.0,0.0
-0.6592,-0.3033,-0.3664,0.0,0.0
0.2286,-0.1464,-0.0427,0.0,0.0
-0.1179,0.3136,0.2611,0.0,0.0
-0.1834,0.2495,-0.0209,0.0,0.0
0.3636,-0.1464,0.5842,0.0,0.0
0.1632,-0.1464,0.0603,0.0,0.0
-0.1631,0.233,-0.411,0.0,0.0
-0.6592,-0.3278,-0.284,0.0,0.0
0.0039,-0.1464,-0.3096,0.0,0.0
0.3938,0.2933,0.3661,0.0,0.0
-0.0745,-0.1464,-0.1026,0.0,0.0
0.557,-0.1244,0.5443,0.0,0.0
-0.2096,0.2711,-0.17,1.8175587467362924,0.09533673434450643
-0.6592,-0.1647,0.2849,0.0,0.0
-0.2666,-0.1464,0.0554,0.0,0.0
-0.5654,-0.1464,-0.5209,0.0,0.0
-0.5052,-0.1464,0.0687,0.0,0.0
0.1593,-0.2081,0.6588,0.0,0.0
-0.6592,-0.037,-0.4533,0.0,0.0
0.557,0.0416,0.5131,0.0,0.0
0.6078,-0.1464,-0.0162,0.0,0.0
-0.476,-0.1464,0.2069,0.0,0.0
-0.439,-0.1464,0.0481,0.0,0.0
0.2755,-0.1464,0.4314,0.0,0.0
-0.0638,-0.0067,-0.5574,1.5646214099216713,0.08206936693258465
0.0559,0.0468,-0.1716,0.0,0.0
0.3024,0.1581,0.0713,0.0,0.0
0.6144,0.2097,0.4682,2.093994778067885,0.10983668298695516
-0.6592,-0.1465,0.176,0.0,0.0
-0.0405,0.0584,0.6529,0.0,0.0
0.028,-0.1464,0.1785,0.0,0.0
-0.6063,-0.1464,0.2895,0.0,0.0
0.0559,-0.317,-0.4162,0.0,0.0
-0.2813,0.092,-0.5574,1.0313315926892952,0.0540966206731263
-0.5653,-0.1464,-0.0043,0.0,0.0
0.0559,0.0431,-0.2018,0.0,0.0
-0.2377,-0.2321,-0.5574,0.0,0.0
-0.6592,-0.0027,-0.5958,0.564621409921671,0.029616187900160913
0.5114,0.066,0.6436,0.5283942558746736,0.027715958503098565
-0.6592,-0.3077,-0.0869,0.0,0.0
-0.2565,0.3095,0.2046,0.0,0.0
-0.0149,0.2086,0.133,0.0,0.0
0.2156,-0.1464,0.2729,0.0,0.0
-0.1609,0.2312,-0.175,0.0,0.0
0.0718,-0.1464,0.2592,0.0,0.0
0.5933,-0.1564,0.378,0.2529373368146214,0.013267367411921796
-0.0495,-0.1464,0.363,0.0,0.0
-0.3098,-0.3308,-0.5574,0.0,0.0
-0.4709,-0.2007,0.4896,0.0,0.0
0.2143,0.0209,0.6588,0.0,0.0
-0.6592,-0.2083,-0.1162,0.28133159268929503,0.014756736398808501
-0.0286,-0.1464,-0.5304,0.0,0.0
-0.3387,-0.0304,-0.5574,3.6478459530026113,0.1913411168555483
0.3371,-0.1464,0.2117,0.0,0.0
0.594,-0.1464,0.1789,0.0,0.0
-0.4647,-0.3273,-0.5574,0.0,0.0
-0.3183,0.3328,-0.0593,0.0,0.0
0.6319,0.2239,0.443,2.868472584856397,0.15046050604307185
-0.5745,0.123,-0.2885,0.0,0.0
0.4208,0.2569,0.1919,0.0,0.0
-0.1105,-0.1464,0.5185,0.0,0.0
-0.3364,-0.1464,0.3537,0.0,0.0
-0.6592,-0.1127,-0.1003,0.0,0.0
-0.2655,-0.1464,0.2973,0.0,0.0
-0.6029,-0.1464,-0.1174,0.0,0.0
0.165,0.1363,0.5577,0.0,0.0
0.5237,0.3256,0.3267,0.0,0.0
-0.5106,-0.1464,-0.3965,0.0,0.0
0.5425,0.0286,0.6588,1.0401436031331592,0.05455883863457389
-0.6112,-0.1464,-0.0003,0.0,0.0
-0.4904,0.1919,-0.1224,0.0,0.0
-0.0499,-0.1464,0.1155,0.0,0.0
-0.018,0.2298,0.4436,0.0,0.0
-0.6532,-0.1464,-0.4924,0.0,0.0
0.5149,-0.1464,0.5271,0.0,0.0
-0.0491,0.1396,-0.3526,0.0,0.0
-0.4977,-0.1464,-0.5986,0.0,0.0
-0.5907,-0.1464,0.3093,0.0,0.0
0.557,0.1715,0.4624,0.0,0.0
0.5747,0.237,0.4269,0.0,0.0
0.1538,-0.1464,0.3963,0.0,0.0
0.0637,-0.0567,-0.0563,2.3625979112271542,0.12392577121922825
0.0,-0.1464,0.427,0.0,0.0
-0.2511,0.2993,0.3588,0.0,0.0
-0.4556,0.2204,-0.5833,0.0,0.0
-0.3215,0.3302,-0.079,0.0,0.0
-0.153,0.2567,0.4108,0.0,0.0
0.557,-0.0392,0.1762,0.26370757180156656,0.013832300475913306
-0.487,-0.1464,0.1233,0.0,0.0
-0.4064,-0.1464,0.2569,0.0,0.0
0.0183,-0.1464,-0.6541,0.266644908616188,0.013986373129729173
-0.4189,-0.3427,0.5415,0.0,0.0
-0.1421,-0.1464,0.356,0.0,0.0
0.0095,0.0877,0.6171,0.0,0.0
0.3935,-0.1464,0.2744,0.5254569190600522,0.0275618858492827
-0.486,-0.1464,-0.0096,0.0,0.0
-0.3737,-0.0238,-0.5574,5.7633812010443854,0.3023076659704864
-0.2473,-0.1464,0.5492,0.0,0.0
-0.4914,-0.1464,-0.5682,0.0,0.0
-0.4041,-0.1464,0.3748,0.0,0.0
-0.3136,0.1322,-0.5574,0.0,0.0
-0.1745,-0.2871,-0.5574,0.2686031331592689,0.014089088232273082
-0.4006,-0.1945,-0.5574,0.0,0.0
0.0206,-0.1464,0.5992,1.046018276762402,0.05486698394220562
-0.6592,-0.0537,-0.2358,0.8009138381201044,0.04201047694045947
0.1325,-0.1464,0.1118,0.0,0.0
-0.6256,-0.1464,-0.3451,0.0,0.0
-0.5286,-0.1464,0.1595,0.0,0.0
0.0559,-0.1099,-0.283,4.694843342036553,0.24625945834902588
-0.4233,0.2468,0.0072,0.0,0.0
-0.4057,-0.1464,-0.3981,0.0,0.0
-0.1922,-0.1368,-0.5574,0.799934725848564,0.04195911938918752
-0.3452,-0.1464,0.2223,0.0,0.0
-0.4843,-0.1464,-0.0571,1.0656005221932117,0.05589413496764474
0.0559,-0.1181,-0.6025,0.7803524804177545,0.040931968363748406
-0.061,0.1493,-0.0799,0.0,0.0
-0.0906,-0.1464,0.251,0.0,0.0
0.5166,0.019,0.6588,0.0,0.0
0.54,0.3006,0.2453,0.0,0.0
0.2373,-0.1464,0.1779,0.0,0.0
-0.2367,0.2932,-0.4605,0.0,0.0
-0.6158,-0.1464,-0.488,0.0,0.0
-0.6452,0.065,-0.0417,0.0,0.0
-0.4177,-0.1564,-0.5786,0.0,0.0
0.0636,-0.1464,0.3861,0.0,0.0
0.4997,-0.0938,0.6588,0.0,0.0
0.6245,-0.2496,0.6538,0.8126631853785901,0.042626767555722936
-0.6592,-0.2767,0.2981,0.0,0.0
0.0787,-0.1464,0.2309,0.0,0.0
-0.0537,-0.1464,0.0615,0.0,0.0
-0.0281,0.0675,-0.5574,1.5665796344647518,0.08217208203512855
-0.1384,-0.1464,0.1054,0.0,0.0
0.0156,0.0866,-0.054,0.0,0.0
-0.5028,-0.1464,0.0406,0.0,0.0
-0.0705,0.3119,0.3435,0.0,0.0
-0.0024,0.1013,-0.0347,0.0,0.0
0.5668,-0.0985,0.6538,0.0,0.0
-0.5045,-0.1464,0.284,0.0,0.0
-0.6592,-0.0175,-0.4691,0.0,0.0
-0.6542,-0.1497,-0.65,0.2529373368146214,0.013267367411921796
-0.5812,-0.1464,-0.0456,0.0,0.0
0.0509,0.0095,-0.5597,2.6253263707571803,0.13770671414386962
-0.2304,-0.1464,0.0108,0.0,0.0
0.2298,-0.1464,0.4685,0.0,0.0
-0.5816,0.0971,-0.5574,0.0,0.0
0.2692,-0.1464,0.6009,0.0,0.0
-0.6592,-0.2311,-0.6202,0.0,0.0
0.3552,-0.2724,-0.0563,0.2519582245430809,0.01321600986064984
0.1061,0.1898,0.4924,0.0,0.0
0.6092,0.3299,0.3135,0.0,0.0
0.4597,-0.1464,0.508,0.0,0.0
-0.4395,0.095,0.4704,0.0,0.0
-0.0086,-0.1464,-0.0743,0.0,0.0
0.3732,-0.2202,-0.0375,0.0,0.0
0.13,-0.2833,0.6588,0.0,0.0
-0.0608,-0.1464,-0.1096,0.0,0.0
-0.4246,0.023,-0.5574,0.529373368146214,0.027767316054370522
-0.0577,0.3331,0.3175,0.0,0.0
-0.4109,-0.1464,0.3983,0.0,0.0
0.3732,-0.2545,0.478,0.0,0.0
-0.2539,-0.1464,-0.0221,0.0,0.0
-0.6227,-0.1464,-0.2366,0.0,0.0
0.1466,0.0019,-0.0563,0.0,0.0
-0.1111,0.1904,-0.2404,0.0,0.0
-0.1092,-0.1464,-0.3133,0.0,0.0
0.6028,0.092,0.6119,1.3410574412532636,0.0703427260588215
0.6298,0.2235,0.4514,3.387075718015666,0.17766288903345087
0.0559,0.0188,-0.4267,0.0,0.0
-0.1447,0.0921,-0.5574,0.0,0.0
0.0305,-0.1464,-0.5387,0.0,0.0
-0.304,-0.1464,0.643,0.0,0.0
-0.2704,-0.1464,0.5816,0.0,0.0
0.1386,0.2117,0.4657,0.0,0.0
0.0132,0.0885,-0.6111,0.0,0.0
0.2746,-0.18,0.6588,0.0,0.0
0.5077,0.1113,0.5883,0.0,0.0
-0.1986,-0.182,-0.5574,0.0,0.0
-0.0738,-0.1464,0.5274,0.0,0.0
0.2457,-0.1464,0.4638,0.0,0.0
0.3675,0.0837,0.622,0.0,0.0
-0.6592,-0.2432,-0.0769,3.1243472584856393,0.1638819461088095
0.557,0.1615,0.2067,0.7911227154046998,0.04149690142773992
-0.4205,-0.1464,-0.0101,0.0,0.0
-0.1154,0.3198,0.2687,0.0,0.0
0.557,0.0228,0.2956,0.0,0.0
-0.3396,0.3153,-0.2297,0.0,0.0
-0.6542,-0.1723,-0.5976,0.0,0.0
-0.0497,0.1401,-0.6469,0.514686684073107,0.02699695278529119
0.0002,-0.2893,0.6588,0.0,0.0
-0.2209,-0.2355,0.6588,0.0,0.0
-0.1678,-0.1464,-0.2383,0.0,0.0
-0.2675,-0.1464,-0.2708,0.0,0.0
-0.131,-0.1464,0.645,0.0,0.0
0.3928,-0.1464,0.278,0.7921018276762402,0.04154825897901187
-0.386,-0.1464,0.5088,0.0,0.0
-0.1785,-0.1464,0.0186,0.0,0.0
0.4007,-0.1464,0.6512,0.0,0.0
-0.2452,-0.1464,0.3479,0.0,0.0
0.0559,-0.1952,-0.1667,0.0,0.0
-0.0653,-0.1464,-0.0045,0.0,0.0
0.347,-0.2268,0.6588,0.0,0.0
-0.2504,0.3044,-0.6432,0.0,0.0
0.6007,-0.1464,-0.0327,0.0,0.0
-0.1758,-0.1464,0.2459,0.0,0.0
0.1758,-0.3335,-0.0563,0.26762402088772846,0.014037730681001127
0.0339,0.0716,-0.1016,0.0,0.0
-0.6378,0.0711,-0.2511,0.0,0.0
-0.3959,0.1595,-0.5574,0.0,0.0
-0.2821,-0.1464,0.5495,0.0,0.0
-0.3809,0.2815,0.1897,0.0,0.0
-0.621,-0.1464,-0.2875,0.0,0.0
0.1917,-0.1464,0.2522,0.0,0.0
0.0876,-0.1464,0.0435,0.0,0.0
-0.5305,0.159,-0.4301,0.0,0.0
0.3758,-0.1464,0.2968,0.266644908616188,0.013986373129729173
-0.0429,-0.1464,0.4868,0.0,0.0
-0.0822,0.1667,-0.1833,0.0,0.0
-0.6269,0.08,-0.5982,0.0,0.0
0.5319,-0.1464,0.4153,0.0,0.0
-0.461,-0.1464,0.107,0.0,0.0
0.0423,0.0433,-0.5574,0.5225195822454308,0.027407813195466837
0.5731,0.1648,0.523,0.0,0.0
0.0162,-0.1464,0.0931,0.0,0.0
-0.5046,0.1314,0.3609,0.0,0.0
-0.3386,-0.1464,0.2668,0.0,0.0
0.5854,-0.1564,0.3738,0.28328981723237595,0.014859451501352412
0.5523,-0.1464,0.2848,5.816253263707572,0.3050809737391721
-0.5712,-0.2847,0.3892,0.0,0.0
-0.5941,0.0834,0.33,0.0,0.0
-0.5502,-0.1464,-0.6453,0.0,0.0
0.6271,-0.1464,0.3867,0.0,0.0
0.2338,-0.1464,0.5291,0.0,0.0
-0.3582,-0.1464,-0.2368,0.0,0.0
-0.2351,-0.1464,0.1516,0.0,0.0
-0.3145,0.0646,0.6325,0.0,0.0
0.1032,-0.3167,0.6588,0.0,0.0
-0.1049,0.1853,-0.1512,0.0,0.0
0.0221,0.2087,0.133,0.26566579634464754,0.013935015578457218
0.3406,-0.1948,-0.0563,0.5186031331592689,0.027202382990379012
-0.6333,-0.1464,0.1964,0.0,0.0
0.0509,-0.12,-0.6082,1.044060052219321,0.05476426883966171
-0.2846,-0.1464,-0.2593,0.0,0.0
-0.6191,-0.1464,-0.2407,0.0,0.0
-0.1737,0.2416,-0.3655,0.0,0.0
-0.0954,-0.1464,-0.0576,0.0,0.0
0.6558,-0.1161,0.6588,0.0,0.0
-0.0779,-0.1464,0.6541,0.0,0.0
0.5459,-0.1464,0.0103,0.0,0.0
-0.1863,0.1145,-0.5574,0.0,0.0
-0.5263,0.1559,-0.6468,0.0,0.0
-0.3287,-0.1464,0.5612,0.0,0.0
-0.5575,-0.1464,-0.3707,0.0,0.0
0.2856,-0.0839,-0.0563,1.0489556135770235,0.055021056596021495
-0.1772,0.3245,0.2745,0.0,0.0
0.2221,0.1335,0.5612,0.0,0.0
-0.2747,-0.3184,-0.5574,0.0,0.0
0.3732,-0.3072,0.2002,0.516644908616188,0.0270996678878351
-0.631,-0.1464,-0.2848,0.0,0.0
-0.2051,0.0504,-0.5574,0.0,0.0
-0.4721,-0.1464,-0.4122,0.0,0.0
-0.6592,-0.1276,-0.0287,0.0,0.0
0.0178,-0.2366,0.6588,0.0,0.0
0.2486,-0.1464,0.3041,0.0,0.0
0.03,0.0225,-0.5574,1.847911227154047,0.09692881843393705
-0.4261,-0.3183,-0.5574,0.0,0.0
-0.4549,-0.1564,-0.6157,0.0,0.0
0.3169,0.271,0.3934,0.0,0.0
0.2741,-0.0796,0.6588,0.0,0.0
-0.2205,0.28,-0.0153,0.0,0.0
-0.4277,-0.1464,0.14,0.0,0.0
-0.5135,-0.1464,-0.1096,0.2519582245430809,0.01321600986064984
0.403,0.0176,-0.0563,0.0,0.0
-0.1242,0.2011,-0.105,0.0,0.0
-0.5585,-0.1464,0.2403,0.0,0.0
-0.6062,0.097,-0.4281,0.0,0.0
-0.6592,-0.1048,-0.4286,0.0,0.0
-0.2657,0.317,-0.3218,0.0,0.0
0.2343,-0.3089,-0.0563,1.5656005221932117,0.0821207244838566
-0.3865,0.2769,-0.5913,0.0,0.0
-0.0011,-0.283,0.6588,0.0,0.0
-0.2722,-0.1464,-0.4555,0.0,0.0
0.1033,-0.1464,0.3345,0.5244778067885116,0.02751052829801074
-0.3718,-0.1464,-0.104,0.0,0.0
0.4515,-0.0347,-0.0563,0.0,0.0
-0.6592,-0.2163,-0.4229,0.0,0.0
-0.5629,0.1324,0.2651,0.0,0.0
0.3732,-0.2023,0.4731,1.568537859007833,0.08227479713767247
-0.5832,0.1158,-0.6412,0.0,0.0
0.2126,0.0729,-0.0328,0.0,0.0
-0.3601,-0.1353,0.6003,0.28133159268929503,0.014756736398808501
-0.3336,-0.1464,-0.037,0.0,0.0
0.659,-0.1564,0.442,1.8860966057441255,0.09893176293354332
0.2107,0.0799,-0.0242,0.0,0.0
0.113,-0.2891,0.6588,0.0,0.0
0.3706,-0.0825,-0.0563,5.143603133159269,0.26979833601533876
-0.5934,-0.1464,-0.0767,0.516644908616188,0.0270996678878351
0.0355,0.188,0.4947,0.0,0.0
-0.1849,-0.1464,0.4608,0.0,0.0
-0.2757,-0.1464,0.578,0.0,0.0
-0.2137,-0.1464,0.2006,0.0,0.0
0.0559,0.0331,-0.087,0.0,0.0
-0.1362,0.0022,0.6588,0.0,0.0
-0.3543,-0.1464,0.3141,0.0,0.0
-0.0036,0.0958,-0.6315,0.0,0.0
-0.2682,0.1527,0.5377,0.0,0.0
0.557,0.1135,0.238,1.0254569190600522,0.05378847536549456
0.3732,-0.2214,0.2863,0.25097911227154046,0.013164652309377887
-0.2178,-0.0214,-0.5574,0.0,0.0
-0.5491,-0.1464,-0.4126,0.0,0.0
-0.04,-0.1612,-0.5574,1.329308093994778,0.06972643544355803
0.2666,-0.1464,0.3636,0.0,0.0
0.3796,-0.1464,0.0525,0.0,0.0
0.3732,-0.2897,0.0229,1.0489556135770235,0.055021056596021495
-0.2895,0.3363,-0.5574,0.0,0.0
0.1966,-0.0179,0.6588,0.0,0.0
0.3327,0.3372,0.29,0.0,0.0
0.3101,-0.1464,0.2308,0.39490861618798956,0.020714212346355322
-0.0605,-0.1464,-0.1891,0.0,0.0
0.0075,-0.1564,-0.6047,0.0,0.0
0.4806,-0.1464,0.1668,0.0,0.0
-0.5043,0.1805,-0.1385,0.0,0.0
-0.2737,-0.1464,0.1187,0.0,0.0
-0.1339,0.209,-0.468,0.5283942558746737,0.027715958503098572
-0.1477,0.3044,0.25,0.0,0.0
-0.2653,-0.1464,0.0442,0.0,0.0
-0.106,0.222,0.1493,0.0,0.0
-0.374,-0.2141,-0.5574,0.0,0.0
0.6561,0.1985,0.1207,0.0,0.0
-0.5043,-0.0621,0.4562,1.0499347258485638,0.05507241414729344
-0.2858,0.0481,0.6588,0.0,0.0
0.557,0.2682,0.2433,1.047976501305483,0.054969699044749534
-0.3921,0.0156,0.5684,2.37532637075718,0.12459341938576365
0.1183,0.195,0.1164,0.0,0.0
-0.4114,-0.1464,0.3461,0.0,0.0
0.2693,-0.1464,0.1533,0.0,0.0
0.6357,0.3365,0.3055,0.0,0.0
-0.1099,-0.1464,-0.1182,0.0,0.0
-0.2866,-0.1464,0.0061,0.0,0.0
-0.0369,-0.1464,0.123,0.0,0.0
-0.4927,-0.1464,-0.5524,0.0,0.0
0.0559,-0.2907,-0.189,0.0,0.0
0.557,-0.0476,0.0223,1.3234334203655354,0.06941829013592632
0.2559,0.1501,0.0615,0.0,0.0
-0.1275,-0.1464,-0.0044,0.0,0.0
-0.3038,-0.1464,0.0995,0.0,0.0
0.2206,-0.1464,0.3762,0.0,0.0
-0.3984,-0.1464,0.5161,0.264686684073107,0.013883658027185261
0.057,-0.3372,0.6588,0.0,0.0
-0.6592,-0.1216,-0.3101,0.0,0.0
-0.6336,-0.1464,0.025,0.8087467362924281,0.04242133735063511
-0.562,-0.1464,-0.5942,0.0,0.0
-0.6592,-0.2263,-0.359,0.0,0.0
-0.1316,0.2072,-0.1697,0.0,0.0
-0.6592,0.0365,-0.1991,0.0,0.0
0.0341,-0.1464,-0.3468,0.0,0.0
0.3732,-0.3306,0.5111,0.0,0.0
0.0626,0.1846,0.1036,3.647845953002611,0.19134111685554828
0.0062,-0.1464,0.4916,0.0,0.0
-0.1605,0.2309,-0.5654,0.26370757180156656,0.013832300475913306
-0.3689,0.2228,-0.5574,0.0,0.0
-0.2442,0.1618,0.5267,0.0,0.0
-0.4579,0.2184,-0.247,0.0,0.0
0.557,0.1257,0.1551,1.5832245430809397,0.08304516040675178
-0.5769,-0.0335,0.3835,0.0,0.0
-0.6592,-0.186,-0.5634,0.0,0.0
0.0443,-0.1464,-0.4609,0.0,0.0
-0.1499,-0.1464,-0.254,0.0,0.0
-0.6592,-0.2754,-0.3366,0.0,0.0
-0.0955,0.1776,-0.3978,0.7823107049608355,0.04103468346629232
-0.4713,-0.1464,0.0243,0.0,0.0
0.4765,-0.1464,0.2069,0.0,0.0
-0.3314,-0.1464,-0.2735,0.0,0.0
-0.4534,0.2222,-0.1542,0.0,0.0
-0.4106,0.215,-0.5574,0.0,0.0
0.0573,-0.188,0.6588,0.0,0.0
-0.5731,-0.1464,0.2683,0.0,0.0
0.384,-0.0437,0.6588,0.0,0.0
0.631,0.1841,0.4916,1.3107049608355092,0.06875064196939089
-0.0173,-0.1464,-0.6089,0.0,0.0
0.516,0.2182,0.1446,0.0,0.0
0.3112,-0.1464,0.3334,0.0,0.0
0.1708,-0.2672,-0.0563,4.2255221932114875,0.2216420721060019
0.459,0.2075,0.1317,0.0,0.0
0.0225,-0.1131,-0.5574,0.0,0.0
0.013,-0.1464,0.3532,0.0,0.0
-0.3782,-0.1464,-0.1688,0.0,0.0
-0.098,0.1796,-0.6171,0.0,0.0
0.3158,0.165,0.5228,0.0,0.0
-0.0347,0.1278,-0.1707,0.0,0.0
0.1035,-0.1464,-0.0013,0.0,0.0
0.0205,-0.1464,-0.5185,0.0,0.0
0.2647,-0.1464,0.1377,0.0,0.0
-0.6592,-0.0519,-0.4199,0.0,0.0
0.5024,0.2221,0.453,0.0,0.0
0.3732,-0.2168,0.4998,1.549934725848564,0.08129900366350531
0.0994,-0.1464,0.3207,0.5244778067885116,0.02751052829801074
-0.2085,-0.1464,0.0919,0.0,0.0
-0.6592,0.0111,-0.5408,0.0,0.0
0.1584,0.2337,0.4389,0.0,0.0
