x,y,z,SaliencyScore,NormalizedScore
-0.2138,-0.005,-0.4516,0.0,0.0
-0.0254,0.005,-0.1839,0.0,0.0
-0.5718,0.205,-0.1121,0.5081669691470054,0.013481306723801729
0.0168,0.005,-0.5112,0.0,0.0
0.1813,0.088,-0.2488,2.6229582577132486,0.06958520908062303
-0.5621,-0.015,-0.4424,0.0,0.0
-0.2556,-0.015,0.7035,0.0,0.0
0.2783,-0.015,-0.3926,0.0,0.0
-0.1401,0.205,-0.6526,0.0,0.0
-0.1129,0.1194,0.3044,0.0,0.0
-0.1538,0.205,0.2176,0.0,0.0
-0.3164,-0.015,-0.1127,0.0,0.0
-0.2779,-0.1368,0.2263,0.0,0.0
-0.0336,0.215,-0.1349,0.0,0.0
-0.454,0.005,-0.2738,0.0,0.0
0.162,0.1034,0.1281,1.8616152450090744,0.04938732275692723
-0.0038,-0.005,-0.334,0.0,0.0
-0.5004,-0.005,0.6486,0.0,0.0
0.0051,0.005,-0.0181,0.0,0.0
-0.2204,0.005,-0.24,0.0,0.0
-0.1178,0.205,0.0925,0.0,0.0
0.2274,-0.005,0.0031,2.3901996370235934,0.0634102891258817
-0.0912,0.205,-0.4984,0.0,0.0
-0.4786,0.005,-0.2507,0.0,0.0
-0.1245,0.215,-0.5425,0.0,0.0
-0.5325,-0.015,0.097,0.0,0.0
-0.0691,0.205,0.0689,0.0,0.0
0.66,-0.015,-0.0019,2.1129764065335754,0.056055754832807725
-0.0117,-0.005,-0.3735,0.0,0.0
0.6251,-0.015,-0.3826,0.0,0.0
-0.0171,-0.1361,-0.479,0.0,0.0
-0.1084,-0.005,0.2424,1.0694192377495464,0.028370928525000606
-0.6587,-0.0188,0.5614,0.0,0.0
0.1813,0.0748,-0.2001,1.8629764065335754,0.04942343339993741
-0.188,0.005,-0.496,0.0,0.0
0.1813,0.0333,-0.1581,1.3561705989110708,0.035978237319145866
-0.19,-0.005,-0.1705,0.0,0.0
0.3938,-0.005,-0.3659,1.0707803992740472,0.028407039168010788
0.0615,0.205,-0.3611,0.0,0.0
-0.6587,-0.0163,0.2423,0.0,0.0
0.2204,0.005,-0.0931,0.8194192377495462,0.021738607092130286
-0.4341,-0.005,0.2789,0.0,0.0
-0.1245,0.215,-0.0867,0.0,0.0
-0.5595,0.215,-0.335,0.7962794918330308,0.02112472616095717
-0.0888,-0.005,-0.3868,0.0,0.0
-0.456,-0.015,0.1364,0.5449183303085299,0.014456294085076673
0.1813,0.1293,-0.364,0.0,0.0
-0.4219,-0.005,0.068,0.0,0.0
-0.6587,-0.1524,0.0859,0.0,0.0
-0.0568,-0.015,-0.4135,0.0,0.0
0.2803,-0.015,-0.1652,1.3194192377495462,0.035003249957870915
-0.4003,0.005,-0.097,0.0,0.0
0.227,0.205,0.1907,0.0,0.0
-0.2861,-0.005,0.5257,0.0,0.0
0.0046,0.005,-0.1536,0.0,0.0
-0.121,-0.015,-0.0317,0.0,0.0
-0.1985,0.005,-0.2127,0.0,0.0
0.162,0.005,-0.2046,0.0,0.0
-0.112,-0.005,0.1017,0.0,0.0
-0.4062,-0.2073,0.5813,0.0,0.0
-0.4599,-0.015,-0.009,0.0,0.0
-0.5715,0.005,-0.1912,0.0,0.0
0.1727,0.215,-0.5997,0.0,0.0
-0.2779,-0.1811,0.3564,1.337114337568058,0.0354726883170033
0.3491,-0.2122,-0.479,0.0,0.0
-0.4123,-0.015,-0.388,0.0,0.0
0.0333,-0.005,-0.2869,0.0,0.0
-0.6587,0.0504,-0.3441,0.0,0.0
-0.1082,0.005,0.1275,0.2731397459165154,0.007246202364043428
0.2,0.215,0.1277,0.0,0.0
0.0891,0.215,0.2818,0.0,0.0
-0.4709,0.0194,-0.0905,0.0,0.0
-0.2422,-0.005,0.2791,0.5217785843920145,0.013842413153903561
-0.4473,-0.015,-0.0353,0.0,0.0
0.1091,0.205,-0.1036,0.0,0.0
0.1714,-0.005,-0.0501,5.563067150635209,0.14758419798261876
0.65,-0.1287,-0.0979,0.0,0.0
-0.1325,-0.005,-0.3703,0.0,0.0
0.3914,-0.005,0.0202,0.0,0.0
0.1256,-0.005,-0.2808,0.0,0.0
0.1929,0.0153,0.3044,0.0,0.0
0.0867,0.005,-0.0859,0.0,0.0
-0.1127,0.005,-0.2569,0.0,0.0
-0.3631,-0.1205,-0.479,0.0,0.0
0.2725,-0.005,-0.378,0.0,0.0
0.0731,0.205,-0.4235,0.0,0.0
0.1183,0.205,-0.2622,0.0,0.0
-0.3219,-0.005,0.6727,0.0,0.0
-0.1842,0.205,0.0608,0.0,0.0
-0.0307,-0.015,-0.4069,0.0,0.0
-0.4181,-0.1359,-0.479,0.5222323049001815,0.013854450034906955
0.0258,0.0241,0.1281,2.9078947368421053,0.07714437035075472
-0.2953,0.005,-0.1194,0.0,0.0
0.1115,0.205,-0.6121,0.2540834845735027,0.006740653361900864
-0.2087,0.1738,-0.1364,0.0,0.0
-0.3598,-0.005,-0.1427,0.0,0.0
0.5146,-0.005,-0.1204,0.0,0.0
-0.0893,0.005,-0.3445,0.0,0.0
-0.0228,-0.015,-0.2867,0.0,0.0
-0.2087,0.0788,0.1225,2.9310344827586206,0.07775825128192783
0.0372,0.005,-0.0226,0.0,0.0
-0.3669,-0.015,-0.0745,0.0,0.0
-0.0576,-0.015,-0.1068,0.0,0.0
0.0362,0.1392,-0.479,0.0,0.0
-0.6161,-0.005,0.6252,0.0,0.0
-0.092,0.022,0.2944,0.7962794918330309,0.021124726160957175
0.1056,-0.005,-0.7259,0.0,0.0
-0.6409,-0.015,0.1482,0.2921960072595281,0.007751751366185993
-0.1009,-0.1987,-0.0758,0.0,0.0
0.0065,0.1035,0.1281,0.0,0.0
-0.5033,-0.015,-0.4775,0.0,0.0
0.1689,0.1864,0.1281,0.0,0.0
-0.2138,-0.005,0.3769,0.0,0.0
-0.6408,-0.005,0.5716,0.0,0.0
-0.1906,0.205,0.2215,0.0,0.0
-0.6587,-0.0713,-0.4461,0.0,0.0
-0.3975,-0.015,0.136,0.0,0.0
-0.3228,-0.005,-0.3289,0.0,0.0
0.0456,0.005,-0.0916,0.0,0.0
0.1093,0.005,-0.6546,0.0,0.0
0.1813,0.0811,-0.2854,2.1293103448275863,0.056489082548929925
-0.147,0.005,0.1445,1.0530852994555353,0.0279376008088784
0.3804,-0.005,-0.3474,1.0707803992740472,0.028407039168010788
-0.1661,-0.015,-0.2331,0.0,0.0
-0.124,-0.005,-0.3121,0.0,0.0
-0.3704,0.005,-0.292,0.0,0.0
-0.6486,0.215,-0.4102,0.0,0.0
-0.4338,-0.015,0.3506,0.0,0.0
0.239,-0.005,-0.1356,6.086206896551724,0.1614627217795325
-0.2413,-0.015,0.4672,0.0,0.0
-0.086,0.084,-0.479,0.0,0.0
0.0555,0.005,0.1328,0.7731397459165155,0.02051084522978406
0.4151,-0.015,-0.4446,0.0,0.0
-0.6264,-0.015,-0.1216,0.0,0.0
-0.0773,-0.005,-0.0982,0.0,0.0
-0.0008,0.005,-0.0682,0.0,0.0
0.3135,-0.1964,-0.0787,0.0,0.0
0.0186,-0.005,-0.7103,0.0,0.0
-0.2615,-0.005,0.7004,0.0,0.0
-0.557,-0.015,0.4044,0.0,0.0
-0.0505,-0.005,0.1938,6.367513611615245,0.16892558800163704
-0.5214,0.005,-0.2945,0.0,0.0
-0.5324,-0.0573,-0.479,0.0,0.0
-0.1873,0.1244,0.1281,5.838929219600725,0.15490262163268254
0.0124,-0.005,-0.1772,0.0,0.0
-0.6114,0.005,-0.2939,0.0,0.0
0.0904,0.205,-0.5349,0.0,0.0
0.3329,-0.005,-0.0613,3.704174228675136,0.09826909651171188
-0.4251,0.0814,-0.0905,0.0,0.0
0.0807,-0.005,-0.0602,0.27450090744101635,0.007282313007053613
0.4427,-0.005,-0.307,0.2690562613430127,0.007137870435012879
-0.6587,-0.0671,0.4648,0.0,0.0
-0.5076,0.005,-0.2774,0.0,0.0
-0.5715,-0.005,0.3886,0.0,0.0
0.1635,0.215,-0.3043,0.0,0.0
-0.1625,0.005,0.2485,0.0,0.0
-0.0239,0.205,-0.3706,0.0,0.0
0.1458,0.1336,0.1281,0.5231397459165155,0.013878523796913745
-0.5649,0.215,-0.4753,0.0,0.0
-0.3859,-0.005,0.4558,0.0,0.0
0.5291,-0.015,-0.4305,0.0,0.0
-0.3174,0.005,-0.2848,0.0,0.0
-0.1062,0.205,0.0022,0.0,0.0
-0.3489,-0.005,-0.3944,0.0,0.0
-0.5633,0.215,-0.1059,0.0,0.0
0.1619,-0.005,-0.3551,0.0,0.0
-0.6069,-0.1407,0.5813,0.0,0.0
-0.6487,-0.1942,0.6422,0.0,0.0
-0.6587,-0.1505,-0.1256,2.3929219600725955,0.06348251041190207
-0.0796,-0.005,-0.4165,0.0,0.0
-0.0915,0.005,-0.0259,0.0,0.0
-0.0753,0.215,-0.5353,0.0,0.0
-0.4837,0.215,-0.236,0.0,0.0
0.181,0.215,0.2119,0.0,0.0
-0.3106,0.215,-0.4258,0.7990018148820327,0.02119694744697754
-0.2966,-0.1303,0.5813,0.0,0.0
0.2376,-0.005,-0.0413,12.245916515426496,0.3248754182816148
-0.3585,-0.015,0.553,0.0,0.0
-0.0721,0.205,-0.6608,0.0,0.0
0.65,-0.0226,-0.0665,0.0,0.0
0.2089,0.005,0.2947,0.0,0.0
-0.5804,-0.015,0.0472,0.0,0.0
-0.5872,-0.005,-0.1325,0.0,0.0
-0.2378,0.005,-0.3787,0.0,0.0
0.2413,0.2051,0.1971,0.0,0.0
-0.4372,-0.005,0.6505,0.0,0.0
-0.3316,0.205,-0.3397,0.0,0.0
-0.3505,0.005,-0.1775,0.0,0.0
0.0013,0.005,-0.3735,0.0,0.0
-0.6587,-0.2099,-0.2527,0.0,0.0
-0.4667,-0.0786,0.5813,0.0,0.0
0.2229,-0.005,-0.4417,0.0,0.0
0.65,-0.1468,-0.1296,0.0,0.0
0.1547,0.005,-0.167,0.0,0.0
0.239,0.0331,0.2944,0.5231397459165155,0.013878523796913745
0.1329,-0.005,-0.3383,0.0,0.0
-0.2779,-0.1388,0.562,0.0,0.0
-0.6587,-0.1255,-0.4736,0.0,0.0
-0.1547,0.215,0.2266,0.0,0.0
-0.0462,0.205,0.1194,0.0,0.0
-0.3835,-0.005,-0.4613,0.0,0.0
0.352,-0.005,-0.246,0.0,0.0
0.1684,0.2064,0.3044,0.0,0.0
-0.1483,-0.015,-0.459,0.0,0.0
-0.606,0.005,-0.4375,0.0,0.0
-0.4262,0.215,-0.1774,0.0,0.0
-0.2113,-0.005,0.6641,0.0,0.0
0.65,-0.0619,-0.1133,0.0,0.0
-0.2176,-0.005,0.6884,0.0,0.0
-0.2087,0.0096,0.0661,0.0,0.0
0.0186,-0.0729,-0.479,0.0,0.0
0.0715,0.205,0.0542,0.0,0.0
-0.3522,0.215,-0.2477,0.0,0.0
-0.1074,0.0003,-0.0905,0.0,0.0
-0.4687,-0.005,-0.3289,0.0,0.0
-0.5313,0.205,-0.151,0.0,0.0
-0.5817,0.1597,-0.479,0.0,0.0
-0.5565,-0.015,-0.4024,0.0,0.0
0.1992,-0.1657,-0.479,0.0,0.0
-0.6587,-0.1668,-0.0484,0.2772232304900181,0.0073545342930739785
-0.3797,-0.005,-0.0398,0.0,0.0
-0.6587,-0.1654,0.1324,0.0,0.0
-0.0441,-0.005,-0.261,0.0,0.0
-0.4602,-0.1519,-0.479,0.0,0.0
-0.0995,-0.1628,-0.479,0.0,0.0
-0.566,0.215,-0.1033,0.2540834845735027,0.006740653361900864
-0.2779,-0.2018,0.0914,0.0,0.0
-0.1367,0.005,0.2128,0.2676950998185118,0.007101759792002697
-0.0582,0.215,-0.6099,0.0,0.0
-0.3132,0.005,-0.38,0.0,0.0
-0.423,-0.015,-0.1227,0.0,0.0
-0.2779,-0.1021,0.2868,0.27041742286751363,0.007173981078023063
0.1941,-0.005,-0.2106,0.0,0.0
0.2413,0.0005,0.169,2.1129764065335754,0.056055754832807725
0.3958,-0.015,-0.274,0.0,0.0
-0.0885,0.205,-0.2862,0.0,0.0
-0.1366,0.0546,0.2944,0.0,0.0
-0.0071,-0.005,-0.2702,0.0,0.0
0.2252,0.215,0.0885,0.7109800362976406,0.018861792532319024
0.1461,0.215,-0.2259,0.0,0.0
0.3524,-0.0926,-0.2145,0.5258620689655172,0.01395074508293411
0.4248,-0.015,-0.307,0.0,0.0
0.5519,-0.015,-0.4341,0.0,0.0
-0.4185,-0.005,0.4687,0.0,0.0
-0.0546,-0.005,-0.2931,0.0,0.0
0.1149,0.005,-0.6465,0.0,0.0
-0.0505,0.205,-0.3541,0.0,0.0
-0.1134,0.005,-0.2695,0.0,0.0
-0.6587,-0.0937,-0.1141,0.29900181488203265,0.007932304581236909
-0.1523,-0.128,-0.479,0.0,0.0
-0.4667,-0.015,0.3945,0.0,0.0
-0.2087,0.2103,-0.1807,0.0,0.0
0.1798,0.205,-0.0104,0.0,0.0
0.0905,0.215,-0.0693,0.0,0.0
0.0871,-0.005,0.0624,0.0,0.0
-0.4318,0.005,-0.4638,0.0,0.0
-0.1674,0.205,-0.2412,0.0,0.0
-0.2779,-0.1164,0.1686,0.0,0.0
0.2675,-0.2038,-0.0784,0.0,0.0
0.1841,0.215,0.13,0.0,0.0
-0.3047,0.205,-0.2444,0.0,0.0
-0.189,0.205,-0.5875,0.0,0.0
0.65,-0.2039,-0.3458,0.0,0.0
-0.6139,0.215,-0.2012,0.0,0.0
-0.5238,-0.015,0.3605,0.0,0.0
0.1813,0.1972,-0.2945,0.0,0.0
-0.4802,-0.005,-0.434,0.0,0.0
-0.1719,-0.0403,-0.0753,3.451451905626134,0.0915645537928212
0.1295,-0.015,-0.3958,0.0,0.0
-0.1588,-0.005,0.243,0.0,0.0
0.1813,0.1811,-0.3569,0.0,0.0
-0.6587,-0.0804,0.4732,0.0,0.0
-0.6333,0.205,-0.1925,0.0,0.0
0.091,0.205,-0.2166,0.0,0.0
0.112,0.005,0.0931,0.0,0.0
-0.1635,0.005,-0.3848,0.0,0.0
0.1813,0.1534,0.0324,0.8166969147005445,0.02166638580610992
-0.0504,-0.005,-0.7252,0.0,0.0
-0.6587,-0.1488,0.1107,0.0,0.0
0.3149,-0.005,-0.329,0.0,0.0
0.015,0.005,-0.7214,0.0,0.0
-0.2227,-0.005,0.0193,0.5517241379310345,0.014636847300127591
-0.2832,-0.005,-0.0911,0.0,0.0
-0.1809,0.205,0.0737,0.0,0.0
-0.5265,-0.005,0.6549,0.0,0.0
-0.1247,-0.005,0.1069,0.0,0.0
0.164,0.005,0.0197,5.777676950998186,0.1532776426972243
-0.0731,0.215,-0.2085,0.0,0.0
-0.5987,-0.015,0.7092,0.25272232304900183,0.006704542718890681
0.2677,-0.005,-0.452,0.0,0.0
0.206,-0.015,-0.0339,0.0,0.0
0.1813,0.1507,-0.3214,0.0,0.0
0.588,-0.005,-0.4093,0.0,0.0
-0.2325,0.138,-0.479,0.5217785843920145,0.013842413153903561
0.143,0.005,-0.0268,0.0,0.0
-0.6216,-0.005,0.5222,0.0,0.0
-0.2087,0.0158,0.0637,0.0,0.0
0.66,-0.1547,-0.424,0.0,0.0
-0.2779,-0.1948,0.3889,0.0,0.0
0.2276,0.215,-0.0706,0.0,0.0
0.4206,-0.0116,-0.1623,0.0,0.0
-0.6587,0.1349,-0.2801,0.0,0.0
-0.01,0.205,-0.2156,0.0,0.0
0.4337,-0.005,-0.3862,0.0,0.0
0.0065,0.215,-0.2974,0.0,0.0
0.3524,-0.0548,-0.3765,0.0,0.0
-0.596,-0.005,-0.4422,0.0,0.0
0.2352,0.005,0.1591,3.7014519056261346,0.09819687522569152
-0.2779,-0.1405,0.0061,0.0,0.0
-0.4478,0.215,-0.1148,0.0,0.0
-0.0026,0.215,-0.6805,0.0,0.0
-0.1943,0.1343,-0.479,0.0,0.0
-0.1426,-0.1577,-0.479,0.0,0.0
0.2667,-0.005,-0.2748,0.0,0.0
-0.1475,0.215,-0.1992,0.0,0.0
0.0098,-0.005,-0.0025,0.0,0.0
0.66,-0.1593,-0.3805,0.0,0.0
0.0165,0.215,-0.0565,0.0,0.0
0.0994,-0.015,-0.4636,0.0,0.0
-0.0341,-0.0465,-0.0763,0.0,0.0
-0.4885,-0.015,-0.3523,0.0,0.0
-0.0328,0.205,0.0343,0.0,0.0
-0.0469,0.215,-0.621,0.0,0.0
0.035,0.005,-0.7023,0.0,0.0
-0.2186,0.005,-0.3804,0.0,0.0
-0.0526,0.1634,-0.479,0.0,0.0
0.1519,-0.005,-0.3944,0.0,0.0
-0.368,-0.015,0.4682,0.0,0.0
-0.0454,-0.015,-0.3543,0.0,0.0
-0.2719,0.215,-0.2152,0.0,0.0
-0.0852,0.205,-0.3359,0.0,0.0
0.1004,0.205,0.16,0.0,0.0
-0.5416,-0.005,-0.4719,0.0,0.0
-0.6587,-0.0403,0.0324,1.5911978221415608,0.042213341678904164
-0.345,-0.005,-0.2898,0.0,0.0
-0.3251,0.005,-0.3081,0.0,0.0
-0.315,-0.005,-0.0721,0.0,0.0
-0.0396,0.005,-0.5587,0.0,0.0
-0.2003,0.215,0.2536,0.0,0.0
-0.2047,0.1511,-0.479,0.0,0.0
-0.0792,0.0229,0.1281,0.778584392014519,0.020655287801824792
-0.4555,-0.005,0.4229,0.0,0.0
-0.0255,-0.1131,-0.0763,0.0,0.0
-0.3782,0.215,-0.4056,0.0,0.0
-0.4956,-0.015,0.4027,0.0,0.0
0.0168,0.205,-0.3969,0.0,0.0
-0.4835,-0.005,-0.4105,0.0,0.0
0.0985,0.205,-0.2401,0.0,0.0
0.1634,0.1172,-0.479,0.0,0.0
0.222,-0.005,-0.4239,0.0,0.0
-0.2087,0.0192,-0.0012,0.0,0.0
-0.0094,0.205,-0.5061,0.0,0.0
-0.2087,0.005,0.141,1.5871143375680583,0.04210500974987362
-0.3938,-0.015,0.6151,0.0,0.0
0.536,-0.005,-0.1098,0.0,0.0
0.1603,-0.005,0.0569,0.7921960072595282,0.021016394231926624
-0.1981,0.005,-0.1856,0.0,0.0
-0.2087,0.1357,-0.0711,0.0,0.0
-0.1575,-0.0128,0.6947,0.0,0.0
-0.0912,-0.015,-0.4167,0.0,0.0
-0.2779,-0.0409,0.523,0.0,0.0
-0.2531,-0.015,0.0123,0.2540834845735027,0.006740653361900864
-0.16,0.215,0.189,0.0,0.0
0.056,0.005,-0.6036,0.0,0.0
-0.0999,0.0725,0.1281,1.8616152450090744,0.04938732275692723
0.1813,0.035,-0.3844,0.0,0.0
-0.0808,0.205,-0.2115,0.0,0.0
-0.1846,0.005,-0.6903,0.0,0.0
0.0922,0.005,0.1004,0.0,0.0
-0.2983,0.0818,-0.0905,0.0,0.0
-0.1306,-0.015,-0.022,0.0,0.0
0.3058,-0.1405,-0.479,0.0,0.0
-0.2015,0.005,-0.1829,0.0,0.0
0.0717,-0.005,-0.3665,0.0,0.0
-0.648,-0.015,-0.3858,0.0,0.0
-0.6587,-0.1766,0.4436,0.0,0.0
-0.0734,0.205,0.0622,0.0,0.0
0.2038,0.005,-0.4633,0.0,0.0
0.414,-0.015,-0.0063,0.0,0.0
0.1836,0.215,-0.4996,0.0,0.0
-0.2785,-0.015,-0.1547,0.0,0.0
-0.0306,0.205,-0.4639,0.0,0.0
-0.1475,-0.1922,-0.479,0.0,0.0
0.1857,0.205,-0.2665,0.5272232304900182,0.013986855725944294
-0.2591,-0.015,-0.4016,0.0,0.0
0.1704,0.215,-0.0095,0.0,0.0
-0.1704,-0.005,0.2617,0.0,0.0
-0.262,0.0933,-0.479,2.3888384754990923,0.06337417848287151
-0.0936,0.005,-0.7079,0.0,0.0
0.3093,-0.005,-0.2558,0.0,0.0
-0.2769,-0.005,0.4853,0.0,0.0
-0.1732,-0.005,0.2319,0.0,0.0
0.5244,-0.015,-0.0605,0.0,0.0
-0.1777,-0.005,0.3748,0.0,0.0
0.326,-0.015,-0.4193,0.0,0.0
0.3453,-0.015,-0.3029,0.0,0.0
-0.5018,-0.005,-0.1935,0.0,0.0
-0.4253,-0.015,0.5607,0.0,0.0
-0.6243,-0.015,0.7209,0.2908348457350272,0.007715640723175811
-0.6016,0.005,-0.2234,0.0,0.0
-0.2959,0.215,-0.3989,0.0,0.0
-0.6218,0.205,-0.4361,0.0,0.0
0.65,-0.194,-0.4449,0.0,0.0
-0.2791,-0.015,-0.3855,0.0,0.0
-0.2779,-0.1138,0.3006,0.0,0.0
-0.0555,0.005,-0.2873,0.0,0.0
0.047,0.215,0.0645,0.0,0.0
-0.1563,0.205,-0.3763,0.0,0.0
-0.3191,-0.005,0.6544,0.0,0.0
0.0112,0.215,-0.3199,0.0,0.0
-0.6587,-0.2149,0.5414,0.0,0.0
0.013,-0.015,-0.2789,0.0,0.0
-0.5176,-0.005,0.1276,0.0,0.0
0.0942,0.205,0.05,0.0,0.0
0.2008,-0.1513,-0.0779,0.0,0.0
-0.6105,0.215,-0.4779,0.0,0.0
-0.114,-0.005,-0.3563,0.0,0.0
-0.6587,-0.0831,0.7159,0.0,0.0
-0.6587,-0.1053,0.2058,0.0,0.0
-0.1748,0.0805,0.1281,2.1429219600725955,0.05685018897903176
0.4208,-0.005,-0.0059,0.27041742286751363,0.007173981078023063
-0.2654,-0.005,0.1452,1.32486388384755,0.03514769252991165
-0.1166,0.215,-0.1741,0.0,0.0
-0.6505,-0.005,-0.4784,0.0,0.0
-0.6471,-0.005,0.5191,0.0,0.0
-0.1037,-0.005,-0.2124,0.0,0.0
-0.5368,-0.005,-0.3973,0.0,0.0
0.1247,0.205,0.1788,0.0,0.0
-0.6487,-0.1891,0.5969,0.0,0.0
0.1641,0.005,-0.226,0.0,0.0
-0.3434,0.005,-0.3701,0.0,0.0
-0.382,-0.005,-0.2829,0.0,0.0
-0.515,0.0718,-0.0905,0.5258620689655172,0.01395074508293411
-0.502,0.1093,-0.0905,0.2717785843920145,0.007210091721033246
-0.2531,0.005,-0.2297,0.0,0.0
0.184,-0.005,0.2085,1.841197822141561,0.04884566311177448
-0.2288,0.205,-0.1397,0.0,0.0
-0.4944,0.005,-0.4661,0.0,0.0
0.1804,-0.015,-0.2318,0.0,0.0
0.65,-0.1542,-0.1162,0.0,0.0
-0.4303,-0.005,0.2782,0.0,0.0
0.1837,0.005,0.234,0.0,0.0
0.1297,0.112,-0.479,0.0,0.0
-0.1532,-0.0727,-0.0754,0.0,0.0
-0.3342,-0.005,-0.4323,0.0,0.0
-0.2159,0.0956,-0.479,0.0,0.0
0.0673,0.205,-0.134,0.0,0.0
0.2275,0.215,-0.2834,0.0,0.0
-0.5128,-0.1556,0.5813,0.0,0.0
0.0809,-0.005,-0.5468,0.0,0.0
0.2398,0.205,0.2001,0.0,0.0
-0.4411,0.005,-0.2822,0.0,0.0
0.0577,-0.005,-0.0678,0.0,0.0
-0.1242,-0.005,0.0483,0.0,0.0
-0.0772,0.205,-0.4121,0.0,0.0
0.164,0.205,-0.241,0.0,0.0
-0.1272,0.205,0.0122,0.0,0.0
-0.0335,0.005,-0.0642,0.0,0.0
-0.3736,-0.015,0.5405,0.0,0.0
0.3524,-0.075,-0.3757,0.0,0.0
-0.4041,-0.015,0.7036,0.0,0.0
0.1112,0.005,-0.0443,0.0,0.0
-0.1276,-0.005,-0.2713,0.0,0.0
0.2266,0.137,0.2944,3.2232304900181483,0.08551000264811381
0.1341,0.215,-0.4516,0.0,0.0
0.4937,-0.015,-0.1977,0.5217785843920145,0.013842413153903561
-0.0535,0.005,-0.2747,0.0,0.0
0.2792,-0.0803,-0.0785,0.0,0.0
-0.0445,-0.005,-0.4463,0.0,0.0
-0.1971,-0.015,0.2402,0.0,0.0
-0.4743,0.196,-0.479,0.0,0.0
-0.6587,0.0857,-0.2112,0.0,0.0
-0.6587,0.1346,-0.1751,0.31125226860254085,0.008257300368328559
-0.5873,0.205,-0.1802,0.0,0.0
-0.3442,-0.015,0.5847,0.0,0.0
0.1594,0.205,-0.4709,0.0,0.0
0.1598,0.0092,0.1281,5.317150635208713,0.14106020847877904
-0.1083,0.005,-0.7037,0.0,0.0
-0.3039,0.005,-0.3919,0.0,0.0
-0.6074,-0.005,-0.2223,0.0,0.0
-0.5532,-0.015,0.6843,0.2717785843920145,0.007210091721033246
-0.0453,-0.005,-0.0836,0.0,0.0
-0.5837,-0.005,-0.1567,0.0,0.0
-0.6587,0.1702,-0.4146,0.0,0.0
-0.3648,0.215,-0.218,0.0,0.0
0.0055,-0.005,-0.2132,0.0,0.0
-0.0977,0.005,-0.3459,0.0,0.0
0.0314,0.205,-0.2113,0.0,0.0
0.3524,-0.0164,-0.2172,0.0,0.0
-0.3173,0.215,-0.1585,0.0,0.0
-0.2237,0.205,-0.1777,0.0,0.0
-0.523,0.005,-0.4198,0.0,0.0
-0.0989,0.005,-0.2307,0.0,0.0
0.2868,-0.015,-0.1625,1.5911978221415612,0.04221334167890418
-0.388,-0.015,0.1359,0.0,0.0
-0.2597,0.005,-0.2162,0.0,0.0
-0.5251,-0.015,-0.1854,0.0,0.0
-0.409,-0.015,-0.0608,0.0,0.0
0.2048,0.205,0.0948,0.4160617059891107,0.011037819880112664
-0.2094,0.005,-0.1519,0.0,0.0
0.2202,-0.005,0.059,1.3357531760435573,0.035436577673993115
-0.2096,0.005,-0.1748,0.0,0.0
-0.3054,0.205,-0.2797,0.0,0.0
-0.6587,-0.1934,-0.0083,0.0,0.0
-0.2423,0.205,-0.4648,0.0,0.0
-0.081,0.005,-0.4493,0.0,0.0
-0.6587,0.1699,-0.2292,0.33030852994555354,0.008762849370471124
-0.1301,0.215,-0.644,0.0,0.0
-0.6587,-0.0415,0.5303,0.0,0.0
0.2641,-0.0613,-0.479,0.0,0.0
0.4193,-0.005,-0.1713,0.0,0.0
0.0674,-0.005,-0.2958,0.0,0.0
-0.6528,-0.015,-0.0018,0.0,0.0
0.0025,-0.005,-0.0752,0.0,0.0
0.1644,0.005,-0.4549,0.0,0.0
-0.1901,-0.005,0.7183,0.0,0.0
-0.6437,-0.005,-0.3403,0.0,0.0
-0.5965,-0.015,-0.2961,0.0,0.0
-0.2059,-0.005,-0.2666,0.0,0.0
0.3524,-0.1354,-0.3962,0.7962794918330309,0.021124726160957175
-0.1553,0.185,-0.479,0.0,0.0
0.1305,-0.005,-0.476,0.0,0.0
-0.2779,-0.027,0.1886,0.0,0.0
-0.6138,-0.1677,-0.479,0.0,0.0
-0.1921,-0.015,0.2351,0.0,0.0
-0.1125,-0.005,0.0499,0.0,0.0
0.0689,0.005,-0.6542,0.0,0.0
-0.138,-0.005,0.0001,0.0,0.0
-0.4995,-0.015,0.1832,0.0,0.0
0.2107,0.005,-0.429,0.0,0.0
-0.3093,0.215,-0.2979,0.0,0.0
-0.2954,0.215,-0.4557,2.376588021778584,0.06304918269577986
-0.3124,0.1486,-0.0905,0.0,0.0
-0.6587,-0.1516,0.1379,0.0,0.0
-0.0073,0.205,-0.1305,0.0,0.0
-0.6333,0.215,-0.1806,0.0,0.0
-0.2184,-0.005,0.6403,0.0,0.0
-0.6575,-0.005,0.6528,0.0,0.0
-0.6587,-0.1822,0.198,0.0,0.0
0.0527,0.005,0.2332,0.5245009074410163,0.013914634439923926
-0.0427,-0.005,-0.6377,0.0,0.0
-0.4873,-0.005,-0.4328,0.0,0.0
-0.6444,0.205,-0.1257,0.0,0.0
-0.2443,-0.005,0.2665,1.0694192377495464,0.028370928525000606
0.0611,0.205,-0.4512,0.0,0.0
-0.4213,-0.015,0.3962,0.0,0.0
-0.2235,-0.015,0.5664,0.2731397459165154,0.007246202364043428
-0.2967,-0.005,-0.2181,0.0,0.0
-0.2779,-0.0624,0.4647,0.0,0.0
0.4364,-0.005,-0.102,0.0,0.0
-0.0284,-0.005,0.1613,1.0680580762250453,0.02833481788199042
-0.0814,-0.005,-0.2874,0.0,0.0
-0.6587,-0.0875,-0.2722,0.0,0.0
-0.184,-0.005,-0.5966,0.0,0.0
-0.2729,0.005,-0.1195,0.0,0.0
-0.2194,-0.005,-0.1724,0.0,0.0
0.1892,0.1097,0.2944,4.247731397459165,0.11268927995377838
-0.4977,-0.0638,0.5813,0.0,0.0
-0.6587,0.1708,-0.384,0.0,0.0
-0.3859,-0.015,-0.1253,0.0,0.0
-0.1258,0.005,-0.2702,0.0,0.0
-0.271,0.205,-0.435,0.2540834845735027,0.006740653361900864
0.0228,0.205,-0.5512,0.0,0.0
-0.1541,-0.005,-0.1514,0.0,0.0
-0.0487,-0.005,0.002,0.0,0.0
0.1813,0.1444,-0.4501,0.0,0.0
-0.5286,0.005,-0.2776,0.0,0.0
-0.5692,-0.015,0.0883,0.0,0.0
-0.0432,-0.005,-0.2359,0.0,0.0
-0.1843,-0.005,-0.2057,0.0,0.0
-0.0484,0.205,-0.4478,0.0,0.0
-0.1619,0.215,-0.3164,0.0,0.0
-0.0955,-0.005,-0.3,0.0,0.0
-0.5825,-0.015,-0.0234,0.0,0.0
-0.126,0.005,-0.3944,0.0,0.0
-0.0028,-0.015,-0.0497,0.0,0.0
0.1129,0.005,-0.4528,0.0,0.0
0.3524,-0.1713,-0.3784,0.0,0.0
0.0049,-0.005,-0.2839,0.0,0.0
0.0908,0.005,0.1165,1.3207803992740472,0.0350393606008811
0.0906,-0.005,-0.4353,0.0,0.0
-0.6587,-0.1956,-0.4228,0.0,0.0
-0.0443,0.005,0.0841,0.0,0.0
-0.4867,-0.005,0.5506,0.0,0.0
-0.3759,0.205,-0.1172,0.0,0.0
-0.0415,-0.005,-0.7172,0.0,0.0
0.2461,-0.005,-0.3505,0.0,0.0
0.0175,0.215,-0.2211,0.0,0.0
-0.1047,-0.005,-0.3951,0.0,0.0
-0.0856,0.1922,0.1281,0.0,0.0
-0.6587,-0.1253,0.3787,0.0,0.0
-0.1019,0.205,0.0646,0.0,0.0
-0.4853,0.005,-0.3369,0.0,0.0
-0.3379,-0.1408,0.5813,0.0,0.0
-0.1488,0.205,0.0797,0.0,0.0
0.1812,0.205,-0.1981,0.0,0.0
-0.162,0.1344,0.3044,0.0,0.0
0.1122,0.215,0.213,0.0,0.0
0.5521,-0.015,-0.0765,0.0,0.0
0.0474,0.005,0.0324,0.0,0.0
-0.388,-0.005,-0.123,0.0,0.0
-0.2325,0.205,-0.1995,0.0,0.0
-0.3242,-0.015,0.7208,3.205535390199637,0.08504056428898144
0.65,-0.0825,-0.4767,0.0,0.0
-0.2234,-0.015,-0.0045,0.0,0.0
-0.2087,0.0368,0.1245,0.2663339382940109,0.007065649148992514
-0.3732,-0.005,0.0158,0.52994555353902,0.01405907701196466
-0.4185,-0.005,-0.45,0.0,0.0
0.2846,-0.1203,-0.479,0.0,0.0
-0.6518,-0.005,-0.2205,0.0,0.0
0.1575,0.205,-0.3203,0.0,0.0
-0.5687,-0.005,0.0278,0.0,0.0
0.4977,-0.015,-0.2097,1.5217785843920146,0.040371698885384825
0.1842,-0.015,-0.3023,0.0,0.0
-0.5169,-0.005,-0.4578,0.0,0.0
0.0538,0.005,-0.362,0.0,0.0
-0.1579,-0.0072,0.4927,0.5462794918330308,0.014492404728086857
0.1305,0.215,-0.4481,0.0,0.0
-0.5188,-0.015,-0.4489,0.0,0.0
-0.2276,-0.005,0.307,0.0,0.0
-0.4284,-0.1779,-0.479,0.0,0.0
-0.3762,-0.015,0.393,0.0,0.0
-0.0648,0.215,0.1492,0.0,0.0
0.0401,-0.0162,-0.0768,0.0,0.0
0.0652,0.205,-0.546,0.0,0.0
-0.209,0.1052,-0.0905,0.0,0.0
-0.2013,0.215,-0.6728,0.0,0.0
-0.1374,0.005,-0.2575,0.0,0.0
0.0546,-0.005,-0.2658,0.0,0.0
-0.2779,-0.0741,0.4944,0.0,0.0
0.1239,-0.015,0.0177,0.0,0.0
0.2989,-0.1237,-0.479,0.0,0.0
-0.0424,0.215,-0.6377,0.0,0.0
-0.0736,0.005,-0.4803,0.0,0.0
-0.6587,0.2059,-0.2769,0.0,0.0
0.4021,-0.015,-0.3347,1.3194192377495464,0.03500324995787092
0.0176,-0.005,-0.201,0.0,0.0
0.1594,0.005,-0.5612,0.0,0.0
-0.16,-0.005,-0.178,0.0,0.0
0.1221,-0.005,-0.0078,0.0,0.0
-0.6124,-0.015,-0.3089,0.0,0.0
-0.0632,-0.005,-0.1045,0.0,0.0
0.1813,0.094,-0.3955,0.0,0.0
-0.336,0.215,-0.2984,0.0,0.0
-0.0398,-0.015,-0.4781,0.0,0.0
0.0776,-0.005,-0.2033,0.0,0.0
0.1291,-0.005,-0.1696,0.0,0.0
-0.4532,-0.015,0.6173,0.27041742286751363,0.007173981078023063
0.2481,-0.183,-0.479,0.0,0.0
-0.3381,-0.005,0.4124,0.0,0.0
-0.5526,-0.015,0.0472,0.0,0.0
0.6299,-0.005,-0.3576,0.0,0.0
-0.0311,-0.005,-0.2153,0.0,0.0
0.122,0.005,-0.0361,0.0,0.0
0.0696,0.205,-0.458,0.0,0.0
0.0403,0.205,-0.3356,0.0,0.0
0.3614,-0.005,0.0159,0.0,0.0
0.1056,-0.0935,-0.0773,2.140199637023594,0.0567779676930114
0.2376,-0.1343,-0.0782,0.0,0.0
-0.6587,0.1507,-0.4752,0.0,0.0
-0.3577,0.1498,-0.0905,0.0,0.0
0.565,-0.015,-0.135,0.0,0.0
-0.5316,-0.005,-0.1852,0.0,0.0
-0.5853,0.005,-0.4773,0.0,0.0
-0.0285,0.005,-0.4422,0.0,0.0
-0.0596,0.205,-0.1283,0.0,0.0
-0.2674,-0.005,0.5341,0.0,0.0
-0.6587,-0.0623,0.4348,0.0,0.0
-0.2589,0.005,-0.3482,0.0,0.0
-0.1167,0.1105,0.3044,0.0,0.0
-0.0423,0.215,-0.1201,0.0,0.0
-0.5778,0.205,-0.1502,0.5245009074410163,0.013914634439923926
-0.6587,0.0704,-0.0998,0.30036297640653353,0.007968415224247093
-0.0654,0.005,-0.2227,0.0,0.0
0.2834,-0.0905,-0.479,0.0,0.0
0.5499,-0.005,0.0092,0.0,0.0
-0.1743,-0.015,0.6598,0.0,0.0
0.51,-0.0144,-0.0666,0.0,0.0
-0.1634,0.205,-0.2983,0.0,0.0
-0.1021,0.005,0.0422,0.0,0.0
0.5508,-0.015,-0.1316,0.0,0.0
0.0388,-0.005,0.0471,0.0,0.0
-0.0891,0.005,-0.6644,0.0,0.0
0.1215,0.205,0.0452,0.0,0.0
0.65,-0.0295,-0.1303,0.0,0.0
0.3524,-0.1186,-0.4461,0.0,0.0
0.0434,0.205,-0.13,0.0,0.0
-0.4792,-0.005,0.6497,0.0,0.0
-0.2134,-0.005,-0.1747,0.0,0.0
-0.6587,-0.0984,0.5238,0.0,0.0
-0.1356,-0.005,-0.4467,0.0,0.0
-0.2394,0.005,-0.1109,0.0,0.0
0.0536,-0.005,-0.0165,0.0,0.0
0.3705,-0.005,-0.4696,0.0,0.0
-0.3971,-0.005,0.2272,0.0,0.0
0.1813,0.1221,-0.2946,0.5408348457350272,0.014347962156046125
0.1034,0.1643,-0.479,0.0,0.0
-0.6587,-0.1875,0.7,0.0,0.0
0.0865,0.005,-0.2927,0.0,0.0
-0.1939,0.1875,-0.479,0.0,0.0
-0.5155,-0.015,-0.0911,0.0,0.0
-0.2087,0.1569,0.0294,0.0,0.0
0.3524,-0.1127,-0.3077,0.0,0.0
0.4522,-0.015,-0.2035,0.0,0.0
0.1767,0.205,-0.6133,0.0,0.0
-0.5583,0.005,-0.3712,0.0,0.0
-0.0807,0.1901,0.2944,0.0,0.0
0.1679,0.205,-0.3043,0.0,0.0
0.65,-0.1097,-0.0641,0.0,0.0
0.068,-0.005,-0.4733,0.0,0.0
-0.4849,0.205,-0.4115,0.0,0.0
-0.0992,0.005,0.0274,0.0,0.0
0.0557,0.005,0.0404,0.0,0.0
-0.1249,0.0043,-0.479,0.0,0.0
-0.3396,-0.1275,-0.479,0.0,0.0
-0.2221,-0.005,-0.1029,0.0,0.0
-0.6427,0.062,-0.479,0.0,0.0
0.0305,0.205,-0.2497,0.0,0.0
-0.2138,-0.015,0.3943,0.0,0.0
0.2056,0.215,0.2282,0.0,0.0
-0.4884,0.205,-0.3634,0.0,0.0
-0.4427,-0.015,0.3072,0.0,0.0
0.2343,-0.005,-0.2668,0.0,0.0
-0.1328,0.005,-0.6814,0.0,0.0
-0.5802,-0.015,-0.1921,0.0,0.0
-0.3289,-0.015,0.3302,0.0,0.0
-0.3495,-0.0886,-0.479,0.0,0.0
-0.2087,0.0989,-0.05,0.0,0.0
0.1933,0.215,-0.7118,0.0,0.0
-0.1805,-0.015,-0.1748,0.0,0.0
-0.2357,-0.005,-0.2144,0.0,0.0
-0.097,0.005,-0.1981,0.0,0.0
-0.0802,0.005,0.0188,0.0,0.0
0.3524,-0.0214,-0.3469,0.0,0.0
-0.5967,-0.015,-0.2677,0.0,0.0
-0.1681,0.215,-0.5367,0.0,0.0
-0.4755,-0.0445,-0.479,0.0,0.0
-0.0792,-0.015,-0.0014,0.0,0.0
-0.2087,0.0669,0.0193,1.308529945553539,0.03471436481378945
-0.0777,-0.1942,-0.479,0.0,0.0
-0.6122,-0.005,-0.2189,0.0,0.0
-0.3696,0.005,-0.3776,0.0,0.0
-0.1106,0.005,-0.4003,0.0,0.0
-0.4705,-0.015,-0.2057,0.0,0.0
-0.3376,-0.015,0.5932,0.0,0.0
-0.0721,0.0277,0.3044,1.5499092558983665,0.04111798550759527
-0.5402,-0.005,-0.2865,0.0,0.0
0.1953,-0.015,-0.2738,0.0,0.0
0.0941,0.215,0.2798,0.0,0.0
-0.2779,-0.0998,0.079,0.0,0.0
-0.392,-0.005,0.0561,0.5476406533575318,0.014528515371097043
-0.0014,0.005,-0.0664,0.0,0.0
-0.0516,-0.005,-0.0659,0.0,0.0
-0.2578,0.005,-0.1548,0.0,0.0
-0.0337,0.005,-0.0463,0.0,0.0
-0.2401,0.215,-0.449,0.0,0.0
-0.5082,-0.015,0.1416,0.0,0.0
-0.1482,0.005,-0.373,0.0,0.0
-0.6369,-0.015,0.6114,0.0,0.0
-0.1433,-0.005,-0.0931,0.0,0.0
0.2171,-0.005,-0.0874,0.0,0.0
0.4606,-0.015,-0.2634,0.0,0.0
-0.6539,0.205,-0.3291,0.0,0.0
0.1427,0.005,-0.2159,0.0,0.0
-0.6166,-0.015,0.4021,0.0,0.0
-0.1774,0.0834,-0.479,0.0,0.0
-0.6587,-0.0669,0.2563,0.0,0.0
-0.2334,-0.015,-0.3184,0.0,0.0
0.1345,0.005,0.2651,0.0,0.0
-0.2779,-0.15,0.1051,0.0,0.0
0.0711,0.205,-0.365,0.0,0.0
0.2134,-0.005,0.2313,0.0,0.0
0.3435,-0.005,-0.1691,0.79491833030853,0.021088615517946992
-0.3464,-0.1398,0.5813,0.0,0.0
-0.4043,0.1945,-0.479,0.0,0.0
-0.3498,0.005,-0.2102,0.0,0.0
0.1146,-0.0661,-0.479,0.0,0.0
0.2144,0.205,-0.7082,0.0,0.0
-0.1539,0.205,-0.0026,0.0,0.0
-0.5865,0.205,-0.4029,0.0,0.0
-0.1661,0.2061,-0.7315,0.0,0.0
-0.2053,-0.005,0.0284,1.058529945553539,0.028082043380919137
0.1322,0.005,-0.6599,0.0,0.0
0.0425,0.215,-0.1545,0.0,0.0
0.2247,0.1506,0.2944,6.650181488203267,0.17642456486675173
-0.2909,-0.015,0.3016,0.0,0.0
0.2118,-0.1787,-0.078,0.2962794918330309,0.007860083295216544
-0.6412,0.215,-0.1214,0.0,0.0
-0.1267,-0.0933,-0.479,0.0,0.0
-0.0916,-0.005,-0.3388,0.0,0.0
0.0465,0.005,-0.444,0.0,0.0
-0.553,-0.015,0.4023,0.0,0.0
-0.1895,-0.005,0.3767,0.0,0.0
-0.3515,-0.005,0.1998,0.0,0.0
-0.3368,-0.005,0.0964,0.0,0.0
0.6595,-0.1312,-0.3405,0.0,0.0
-0.5255,0.005,-0.1688,0.0,0.0
-0.1301,0.215,-0.4707,0.0,0.0
0.144,0.0766,0.2944,0.25272232304900183,0.006704542718890681
-0.2085,0.205,-0.3555,0.0,0.0
-0.626,-0.015,0.2062,0.0,0.0
-0.2231,-0.015,-0.4556,0.0,0.0
-0.461,-0.005,-0.2795,0.0,0.0
0.1813,0.1165,-0.3381,0.0,0.0
-0.6587,-0.0413,0.698,0.0,0.0
-0.6587,-0.0271,0.5061,0.0,0.0
0.2118,0.005,-0.5258,0.0,0.0
0.088,-0.005,-0.1606,0.0,0.0
-0.5268,0.0115,-0.0905,0.0,0.0
-0.1963,0.005,0.1399,1.8575317604355719,0.04927899082789668
-0.3973,-0.015,0.4877,0.0,0.0
-0.2457,-0.015,0.1285,0.0,0.0
0.3394,-0.1631,-0.0789,0.5217785843920145,0.013842413153903561
-0.3611,-0.005,-0.4665,0.0,0.0
-0.4704,-0.005,-0.2508,0.0,0.0
-0.1714,-0.015,-0.2441,0.0,0.0
-0.2779,-0.0518,0.475,0.0,0.0
-0.3445,0.0531,-0.0905,0.0,0.0
-0.0749,0.1352,-0.479,0.0,0.0
-0.6587,-0.1326,0.0549,0.0,0.0
-0.1653,-0.005,0.2943,0.0,0.0
-0.3952,-0.005,0.2573,0.0,0.0
-0.6587,-0.1993,-0.1151,0.0,0.0
0.1506,-0.005,-0.0069,0.8003629764065335,0.02123305808998772
-0.1498,-0.015,-0.4477,0.0,0.0
0.6531,-0.215,-0.1172,0.0,0.0
-0.6587,-0.1257,-0.39,0.0,0.0
-0.0266,-0.005,0.1758,2.362976406533575,0.06268807626567803
0.0475,-0.005,-0.5657,0.0,0.0
-0.6443,0.215,-0.1577,0.0,0.0
0.0795,0.005,-0.6125,0.0,0.0
-0.6415,0.005,-0.1993,0.0,0.0
0.0164,0.005,-0.4352,0.0,0.0
-0.3859,-0.015,0.2383,0.0,0.0
-0.6511,0.005,-0.336,0.0,0.0
-0.6518,-0.005,-0.2281,0.0,0.0
-0.0649,0.205,-0.2096,0.0,0.0
0.2112,0.205,-0.3329,0.0,0.0
0.0077,0.205,-0.1055,0.0,0.0
-0.3591,0.005,-0.1453,0.0,0.0
0.0201,0.205,-0.5153,0.0,0.0
-0.245,-0.005,-0.3853,0.0,0.0
-0.1539,-0.005,-0.1745,0.0,0.0
-0.1968,-0.005,0.4087,0.0,0.0
-0.0812,0.215,-0.6278,0.0,0.0
-0.5673,-0.005,-0.2466,0.0,0.0
-0.1004,0.205,-0.006,0.0,0.0
0.3132,-0.1416,-0.479,0.0,0.0
-0.0213,0.205,-0.1794,0.0,0.0
0.4979,-0.015,0.004,0.0,0.0
-0.0206,0.005,-0.389,0.0,0.0
-0.5113,0.005,-0.2924,0.0,0.0
-0.5624,-0.1954,-0.479,0.0,0.0
0.1522,0.205,-0.0953,0.0,0.0
0.1912,0.205,0.0344,1.058529945553539,0.028082043380919137
-0.2849,-0.015,-0.3738,0.0,0.0
-0.2804,0.205,-0.4539,1.8357531760435573,0.04870122053973375
0.0948,0.215,-0.3273,0.0,0.0
0.1366,-0.168,-0.479,0.0,0.0
0.021,0.205,-0.3916,0.0,0.0
-0.2082,0.005,-0.2453,0.0,0.0
0.1505,0.005,-0.1705,0.0,0.0
0.1601,-0.1291,-0.479,0.0,0.0
-0.0135,-0.015,-0.1164,0.0,0.0
0.0372,-0.005,-0.2363,0.0,0.0
-0.2548,-0.2014,-0.0747,0.0,0.0
0.0062,0.0972,-0.479,0.0,0.0
-0.4626,-0.005,0.0146,0.0,0.0
-0.2036,-0.015,0.2908,0.0,0.0
-0.1131,0.005,-0.2564,0.0,0.0
0.1847,0.215,-0.0399,0.0,0.0
-0.2779,-0.1973,0.4807,0.0,0.0
0.1565,0.005,0.2496,0.0,0.0
-0.61,0.215,-0.394,0.0,0.0
-0.3509,-0.015,0.4283,0.0,0.0
-0.2906,-0.015,-0.0004,1.5966424682395643,0.04235778425094489
-0.6587,0.1273,-0.3483,0.0,0.0
0.66,-0.0303,-0.088,0.0,0.0
-0.2809,0.205,-0.2761,0.0,0.0
-0.093,0.205,0.1312,0.0,0.0
-0.5053,0.0155,-0.0905,0.0,0.0
-0.1354,0.1934,0.3044,0.0,0.0
-0.029,-0.005,-0.0589,0.0,0.0
0.0777,-0.015,-0.2813,0.0,0.0
-0.1141,-0.005,-0.1668,0.0,0.0
0.0179,0.215,-0.5881,5.336206896551724,0.14156575748092154
-0.1248,0.1466,-0.479,0.0,0.0
-0.5701,-0.015,0.0904,0.0,0.0
-0.6587,-0.0996,0.0319,0.0,0.0
0.1705,-0.005,-0.221,0.0,0.0
0.1025,0.205,-0.0251,0.0,0.0
0.2405,0.215,-0.2112,0.0,0.0
0.6551,-0.2038,-0.3405,0.0,0.0
-0.1599,-0.005,-0.6724,0.0,0.0
0.6009,-0.005,-0.0257,0.0,0.0
-0.2982,-0.1296,-0.479,0.0,0.0
-0.0857,0.005,0.0147,0.0,0.0
0.0263,-0.015,-0.3922,0.0,0.0
-0.4811,0.0301,-0.479,0.0,0.0
0.3615,-0.005,-0.2,0.0,0.0
-0.6416,-0.005,-0.1615,0.0,0.0
-0.2227,-0.005,-0.1359,0.0,0.0
-0.2726,0.215,-0.334,0.0,0.0
-0.1276,0.005,-0.4101,0.0,0.0
-0.2178,-0.015,0.5199,0.0,0.0
0.1667,0.005,0.2892,0.0,0.0
-0.1721,0.005,-0.5989,0.0,0.0
-0.458,0.205,-0.3596,0.0,0.0
-0.2583,-0.015,0.158,1.606170598911071,0.042610558752016185
-0.5492,0.005,-0.2351,0.0,0.0
0.0349,0.205,0.0279,0.0,0.0
-0.3035,0.005,-0.1644,0.0,0.0
-0.3369,-0.1539,0.5813,0.0,0.0
-0.1828,0.205,-0.1069,0.0,0.0
0.1115,-0.0323,-0.0773,1.8452813067150635,0.048953995040805026
-0.2465,-0.005,-0.0036,0.0,0.0
-0.4752,0.215,-0.3987,0.0,0.0
-0.5669,-0.005,0.625,0.0,0.0
-0.3618,-0.015,-0.2267,0.0,0.0
0.2202,-0.015,-0.3853,0.0,0.0
0.65,-0.0406,-0.3406,0.0,0.0
-0.2399,-0.005,-0.1945,0.0,0.0
-0.1322,0.005,-0.1387,0.0,0.0
0.1348,0.005,-0.5768,0.0,0.0
-0.0761,0.205,-0.1677,0.0,0.0
-0.1545,0.005,0.1746,0.7962794918330308,0.02112472616095717
0.1859,0.005,-0.6847,0.0,0.0
-0.4528,-0.005,-0.0429,0.0,0.0
-0.2809,0.215,-0.3616,0.0,0.0
0.6475,-0.015,-0.0534,0.0,0.0
-0.1819,0.005,0.0323,0.0,0.0
0.1682,-0.005,-0.2581,0.0,0.0
-0.4125,-0.005,-0.143,0.0,0.0
0.1813,0.0971,-0.0319,2.386116152450091,0.06330195719685117
-0.4886,-0.005,0.5074,0.0,0.0
0.2333,0.0634,0.2944,0.0,0.0
0.3524,-0.1473,-0.3843,0.0,0.0
0.2267,-0.005,-0.191,0.0,0.0
0.0615,0.1684,-0.479,0.0,0.0
0.1355,0.005,-0.5861,0.0,0.0
-0.5309,-0.005,-0.2837,0.0,0.0
-0.4075,0.2149,-0.4792,0.0,0.0
-0.5684,0.005,-0.2294,0.0,0.0
-0.2744,-0.005,-0.1162,0.0,0.0
0.1199,0.215,-0.502,0.0,0.0
-0.5793,0.0615,-0.479,0.0,0.0
-0.1139,0.0032,-0.479,0.0,0.0
0.4652,-0.0085,-0.1623,2.1129764065335754,0.056055754832807725
-0.0455,0.045,-0.479,0.0,0.0
0.0869,0.0736,0.1281,0.0,0.0
-0.6489,0.0125,-0.0905,0.0,0.0
0.4571,-0.005,-0.3675,0.0,0.0
0.0666,0.205,-0.6989,0.0,0.0
-0.6587,-0.0889,0.6907,0.0,0.0
0.0115,0.005,-0.2442,0.0,0.0
-0.2087,0.008,-0.0952,0.0,0.0
0.0559,0.205,-0.1516,0.0,0.0
0.0592,-0.005,-0.7153,0.0,0.0
-0.1109,0.005,-0.4385,0.0,0.0
-0.6587,-0.1335,-0.3874,0.0,0.0
-0.3895,0.005,-0.4699,0.0,0.0
-0.6587,0.021,-0.1678,0.0,0.0
0.0004,0.005,-0.068,0.0,0.0
-0.1594,0.215,-0.6964,0.0,0.0
-0.5484,-0.005,-0.1073,0.0,0.0
-0.2087,0.1336,0.2987,0.0,0.0
0.19,-0.005,-0.729,0.0,0.0
-0.145,0.005,-0.1495,0.0,0.0
-0.6587,-0.1328,0.267,0.0,0.0
-0.612,0.005,-0.2745,0.0,0.0
0.1813,0.0403,-0.3959,0.0,0.0
0.1178,0.205,0.2498,0.0,0.0
0.021,-0.005,-0.3951,0.0,0.0
-0.3601,0.205,-0.154,0.0,0.0
-0.2452,-0.005,-0.1528,0.0,0.0
-0.4809,0.005,-0.135,0.0,0.0
0.65,-0.0362,-0.3846,0.0,0.0
0.66,-0.0553,-0.3685,0.0,0.0
-0.1883,0.005,-0.268,0.0,0.0
-0.1541,0.215,-0.3801,0.0,0.0
0.1637,-0.015,-0.0883,0.2690562613430127,0.007137870435012879
-0.202,0.005,-0.5704,0.0,0.0
-0.2725,0.205,-0.1814,0.0,0.0
0.0769,-0.005,0.1474,1.3207803992740472,0.0350393606008811
-0.0923,0.005,-0.1657,0.0,0.0
0.1092,0.1624,0.3044,1.3207803992740472,0.0350393606008811
-0.6559,-0.005,0.1831,0.0,0.0
-0.3098,0.005,-0.2676,0.0,0.0
-0.2341,-0.015,0.4329,0.0,0.0
-0.0193,0.205,-0.0604,0.0,0.0
-0.3367,-0.005,-0.342,0.0,0.0
-0.3012,0.215,-0.3333,0.0,0.0
-0.5812,0.205,-0.3626,0.0,0.0
0.65,-0.0951,-0.0281,0.0,0.0
0.4166,-0.005,-0.335,1.5721415607985483,0.041707792676761606
-0.2162,0.215,-0.0928,0.0,0.0
-0.3433,0.005,-0.2511,0.0,0.0
0.0423,0.215,-0.6063,0.0,0.0
-0.2029,0.005,-0.3695,0.0,0.0
0.2262,0.215,-0.4972,0.0,0.0
-0.2865,0.1989,-0.0905,0.0,0.0
-0.1484,-0.015,-0.0592,0.0,0.0
-0.053,0.215,0.0712,0.0,0.0
-0.1789,-0.005,-0.4923,0.0,0.0
-0.4573,-0.005,0.1435,1.8439201451905627,0.04891788439779485
0.1087,0.1625,0.3044,1.3207803992740472,0.0350393606008811
-0.2279,-0.005,0.3357,0.0,0.0
-0.1229,0.005,-0.3324,0.0,0.0
-0.0357,0.215,-0.2008,0.0,0.0
0.2351,-0.005,-0.4455,0.0,0.0
-0.3753,-0.015,0.4605,0.0,0.0
0.0915,-0.015,-0.2295,0.0,0.0
0.331,-0.0939,-0.479,0.0,0.0
0.3953,-0.015,-0.2601,0.0,0.0
0.1462,-0.005,-0.2809,0.0,0.0
-0.1922,-0.005,-0.1503,0.0,0.0
0.2191,-0.005,0.1235,1.046279491833031,0.02775704759382749
-0.2124,-0.0746,-0.075,0.0,0.0
0.1667,-0.005,-0.0061,2.371143375680581,0.06290474012373914
0.1108,0.205,-0.3402,0.0,0.0
0.2174,0.215,-0.1998,0.0,0.0
-0.2779,-0.0976,0.2346,0.0,0.0
-0.2801,-0.005,-0.4402,0.0,0.0
-0.6266,0.182,-0.0905,0.0,0.0
-0.3166,-0.015,-0.2321,0.0,0.0
-0.3137,0.005,-0.2322,0.0,0.0
-0.583,0.005,-0.2574,0.0,0.0
-0.0838,0.205,-0.1529,0.0,0.0
-0.6467,0.205,-0.1575,0.0,0.0
-0.1995,0.205,-0.2649,0.0,0.0
-0.0716,0.2043,0.1281,0.0,0.0
-0.1332,-0.005,-0.5852,0.0,0.0
-0.2087,0.0003,-0.4231,0.0,0.0
-0.4441,-0.005,0.2221,0.0,0.0
0.1634,-0.005,-0.2958,0.0,0.0
-0.2937,-0.015,0.2347,0.0,0.0
0.0657,0.205,-0.0439,0.0,0.0
-0.0984,-0.005,-0.2289,0.0,0.0
0.0847,-0.005,-0.0782,0.5217785843920145,0.013842413153903561
-0.538,-0.0959,-0.479,0.0,0.0
-0.5251,-0.015,-0.2718,0.0,0.0
-0.3721,-0.005,-0.2433,0.0,0.0
0.65,-0.0941,-0.0877,0.0,0.0
-0.5111,0.1774,-0.0905,0.0,0.0
-0.5309,-0.005,0.0933,0.0,0.0
-0.195,-0.005,0.2946,0.0,0.0
-0.2868,0.0191,-0.479,0.0,0.0
0.1263,0.205,-0.4154,0.0,0.0
-0.1058,-0.1692,-0.479,0.0,0.0
0.1811,0.215,-0.2325,0.0,0.0
-0.0424,-0.015,-0.1562,0.0,0.0
0.1229,-0.015,-0.4282,0.0,0.0
-0.1953,0.005,-0.3866,0.0,0.0
0.1801,-0.015,-0.4637,0.0,0.0
-0.3102,-0.005,0.5906,0.0,0.0
0.04,-0.015,-0.1923,0.0,0.0
0.65,-0.137,-0.0235,0.0,0.0
-0.61,0.005,-0.3207,0.0,0.0
-0.183,-0.005,-0.2145,0.0,0.0
-0.0448,0.215,0.0938,0.0,0.0
0.1496,0.215,-0.3839,0.0,0.0
-0.1502,0.1985,0.3044,0.0,0.0
0.0454,0.1546,-0.479,0.0,0.0
-0.3823,-0.005,0.3651,0.0,0.0
-0.6587,-0.1849,-0.2053,0.0,0.0
0.4151,-0.015,-0.3533,0.7962794918330309,0.021124726160957175
-0.1714,0.0855,0.2944,0.0,0.0
0.0267,0.205,-0.1861,0.0,0.0
-0.3841,0.205,-0.2246,0.0,0.0
-0.6587,-0.1162,0.0285,0.0,0.0
-0.4962,-0.005,-0.4285,0.0,0.0
-0.3396,-0.005,0.6917,0.0,0.0
-0.0291,0.005,0.0307,0.0,0.0
-0.1386,0.0786,-0.479,0.0,0.0
-0.2779,-0.1132,0.0451,0.0,0.0
0.0489,-0.005,0.0237,0.0,0.0
-0.0322,0.215,-0.1504,0.0,0.0
-0.1703,-0.005,-0.2105,0.0,0.0
-0.5848,-0.005,0.1674,0.0,0.0
0.65,-0.0368,-0.4678,0.0,0.0
-0.1581,-0.015,0.6857,0.0,0.0
-0.0554,0.215,-0.2973,0.0,0.0
-0.4826,-0.015,0.4062,0.0,0.0
0.1953,-0.015,-0.1603,0.0,0.0
0.1223,0.205,-0.4763,0.0,0.0
-0.3438,0.005,-0.1803,0.0,0.0
-0.3143,0.1494,-0.0905,0.0,0.0
-0.6587,-0.1664,0.627,0.0,0.0
-0.2779,-0.1657,0.5459,0.0,0.0
-0.2779,-0.0213,0.4522,0.0,0.0
0.3002,-0.015,-0.076,8.222323049001817,0.2181323575435134
-0.5088,-0.015,0.1834,0.0,0.0
-0.2595,-0.005,-0.1408,0.0,0.0
-0.3763,-0.015,-0.1169,0.0,0.0
-0.6587,-0.1495,0.5368,0.0,0.0
0.0746,0.005,-0.108,0.0,0.0
-0.633,0.215,-0.3861,0.0,0.0
0.1509,-0.005,-0.6221,0.0,0.0
-0.1694,0.1815,0.2944,0.0,0.0
0.2009,0.215,0.0183,0.8071687840290381,0.02141361130503864
-0.2087,0.1251,-0.0696,0.0,0.0
0.2182,-0.005,-0.398,0.0,0.0
-0.6587,-0.033,-0.3677,0.0,0.0
0.3517,-0.015,-0.1139,3.9745916515426503,0.10544307758973497
0.068,-0.005,0.0325,0.0,0.0
0.5846,-0.015,-0.4139,0.0,0.0
-0.1805,-0.015,-0.0638,0.5217785843920145,0.013842413153903561
0.0345,-0.1711,-0.0768,2.3793103448275863,0.06312140398180024
0.1385,0.205,0.0071,0.0,0.0
-0.1532,0.0323,0.3044,0.0,0.0
-0.4297,0.005,-0.1534,0.0,0.0
-0.6587,-0.0057,-0.4653,0.0,0.0
0.1929,-0.1255,-0.479,0.0,0.0
-0.1307,0.205,-0.4181,0.0,0.0
-0.0935,-0.005,-0.5646,0.0,0.0
-0.3276,-0.015,0.1606,0.0,0.0
-0.3271,0.0555,-0.0905,0.0,0.0
0.0082,0.005,0.1081,0.0,0.0
-0.0986,0.205,-0.5785,0.0,0.0
0.66,-0.0462,-0.0601,0.0,0.0
-0.2087,0.0298,0.0389,1.88475499092559,0.05000120368810035
0.6077,-0.015,-0.1483,0.0,0.0
-0.0466,-0.1091,-0.0199,1.3411978221415608,0.03558102024603385
0.18,0.1469,0.1281,4.764065335753177,0.12638725053564123
-0.2332,-0.015,0.0045,0.0,0.0
-0.0847,0.005,-0.1432,0.0,0.0
-0.2366,-0.0839,-0.479,0.0,0.0
0.65,-0.1502,-0.086,0.0,0.0
0.1779,0.205,-0.3661,0.0,0.0
0.0762,0.205,-0.7075,0.0,0.0
-0.114,0.005,-0.3469,0.0,0.0
0.1094,0.1094,0.1281,0.2717785843920145,0.007210091721033246
0.1536,0.215,-0.4859,0.0,0.0
-0.382,-0.005,-0.051,0.0,0.0
-0.0369,0.205,-0.3765,0.0,0.0
-0.6587,-0.0226,-0.2764,0.0,0.0
-0.3985,-0.005,-0.3988,0.0,0.0
0.1947,-0.005,0.2748,0.0,0.0
0.1647,-0.005,-0.2207,0.0,0.0
-0.0516,-0.0957,-0.0102,0.0,0.0
-0.4189,0.215,-0.3884,0.0,0.0
0.66,-0.1023,-0.3409,0.0,0.0
0.0221,0.205,-0.0284,0.0,0.0
-0.012,0.205,-0.0854,0.0,0.0
-0.5277,0.005,-0.3431,0.0,0.0
-0.1363,-0.005,-0.6705,0.0,0.0
-0.0809,0.1898,0.3044,0.0,0.0
0.1571,0.005,-0.2555,0.0,0.0
-0.4672,-0.005,0.0578,0.2690562613430127,0.007137870435012879
-0.3351,-0.005,0.225,0.0,0.0
-0.6587,-0.0185,-0.3757,0.0,0.0
-0.0922,0.1844,0.3044,0.0,0.0
0.0118,0.215,-0.3972,0.0,0.0
0.0995,-0.005,-0.6144,0.0,0.0
0.0113,0.0207,-0.479,0.0,0.0
0.2022,0.205,-0.5954,0.0,0.0
0.0904,-0.005,0.2779,0.0,0.0
-0.0855,-0.005,-0.4958,0.0,0.0
0.3972,-0.015,-0.1093,2.115698729582577,0.05612797611882809
-0.5454,-0.015,0.1009,0.0,0.0
-0.131,0.205,-0.315,0.0,0.0
0.1095,0.005,-0.3569,0.0,0.0
0.0439,-0.015,-0.2512,0.0,0.0
0.1308,-0.005,-0.1363,0.0,0.0
0.1503,-0.005,0.028,0.0,0.0
0.5786,-0.015,-0.1242,0.0,0.0
0.0295,0.005,-0.3741,0.0,0.0
-0.2779,-0.1674,0.444,0.0,0.0
-0.4763,-0.005,-0.2526,0.0,0.0
0.1847,0.205,-0.4072,0.0,0.0
-0.5151,-0.015,0.4254,0.0,0.0
-0.0863,0.164,0.2944,0.0,0.0
0.1657,-0.005,0.2489,0.0,0.0
-0.2257,-0.005,0.5745,0.25272232304900183,0.006704542718890681
-0.0951,0.205,0.1114,0.0,0.0
-0.1868,-0.015,-0.0052,0.0,0.0
-0.0876,0.215,-0.0309,0.0,0.0
-0.5725,-0.005,-0.0663,0.0,0.0
-0.0718,0.005,0.1668,8.455989110707804,0.22433135126026146
0.1813,0.1421,-0.0641,0.7976406533575318,0.021160836803967357
-0.4798,-0.015,0.1665,1.8616152450090746,0.049387322756927234
-0.0137,0.005,-0.0285,0.0,0.0
-0.2087,0.0016,-0.6113,0.0,0.0
-0.6321,0.215,-0.1928,0.0,0.0
-0.5724,0.005,-0.4416,0.0,0.0
-0.6381,0.005,-0.4336,0.0,0.0
0.1813,0.0138,-0.2432,0.0,0.0
-0.1695,0.205,-0.1111,0.0,0.0
0.0034,0.205,-0.4056,0.0,0.0
0.1523,-0.005,-0.41,0.0,0.0
-0.4173,-0.005,-0.3121,0.0,0.0
-0.181,0.005,-0.0674,0.0,0.0
-0.0622,0.215,-0.5225,0.0,0.0
0.1897,0.215,-0.1635,0.0,0.0
0.0639,0.1825,0.1281,0.0,0.0
0.0958,-0.205,-0.0772,0.0,0.0
-0.0925,0.205,-0.5307,0.0,0.0
-0.1105,0.005,-0.0883,0.0,0.0
0.0937,-0.005,0.1875,0.0,0.0
-0.2585,0.215,-0.1668,0.0,0.0
0.1813,0.2004,-0.4024,0.0,0.0
0.0445,0.215,-0.48,0.0,0.0
0.0137,0.005,-0.4065,0.0,0.0
0.0607,-0.005,0.0882,0.0,0.0
0.2347,0.005,-0.4102,0.0,0.0
0.1669,-0.015,-0.3554,0.0,0.0
-0.131,-0.1172,-0.0691,0.0,0.0
-0.5729,-0.005,-0.3299,0.0,0.0
0.0273,0.005,0.0053,0.0,0.0
-0.3587,0.005,-0.3451,0.0,0.0
-0.0538,0.205,-0.332,0.0,0.0
-0.471,-0.005,0.585,0.0,0.0
-0.319,0.205,-0.3361,0.0,0.0
0.1727,0.215,-0.3103,0.0,0.0
-0.206,0.215,-0.3633,0.0,0.0
0.2279,-0.015,-0.3174,0.0,0.0
-0.0643,0.205,-0.377,0.0,0.0
-0.0143,0.205,-0.4393,0.0,0.0
-0.1757,-0.005,-0.6246,0.0,0.0
-0.1647,-0.015,-0.4318,0.0,0.0
-0.5717,-0.005,-0.2713,0.0,0.0
0.0062,0.205,-0.1032,0.0,0.0
-0.2087,0.0131,0.1113,1.0476406533575318,0.027793158236837673
-0.2636,-0.005,-0.0214,1.3044464609800364,0.03460603288475891
-0.136,-0.204,-0.0455,0.2731397459165154,0.007246202364043428
-0.3675,-0.005,-0.1291,0.0,0.0
-0.6076,-0.015,0.3555,0.0,0.0
-0.0011,0.205,-0.4054,0.0,0.0
0.1069,0.215,-0.1903,0.0,0.0
0.1818,-0.158,-0.479,0.0,0.0
-0.0163,-0.005,-0.4483,0.0,0.0
0.3295,-0.015,-0.0349,0.0,0.0
-0.5257,0.005,-0.3794,0.0,0.0
-0.4732,-0.015,-0.1644,0.0,0.0
0.3524,-0.0893,-0.2413,0.0,0.0
-0.573,-0.005,0.2823,0.0,0.0
-0.3549,-0.015,0.0198,0.2676950998185118,0.007101759792002697
-0.1479,0.1022,0.1281,3.204174228675136,0.08500445364597126
-0.0521,-0.005,-0.3013,0.0,0.0
0.1813,0.1161,-0.2629,0.25544464609800366,0.006776764004911048
0.1308,0.215,-0.3086,0.0,0.0
-0.3749,-0.015,0.3075,0.0,0.0
-0.0181,0.2122,-0.7315,0.0,0.0
-0.3747,-0.015,-0.3038,0.0,0.0
0.0324,0.005,-0.348,0.0,0.0
0.0768,0.096,0.1281,1.3166969147005445,0.03493102867185055
-0.0059,0.205,-0.3988,0.0,0.0
-0.0997,0.215,0.2328,0.0,0.0
0.2179,-0.015,-0.4766,0.0,0.0
-0.2582,0.215,-0.4773,0.0,0.0
-0.2779,-0.2109,0.4607,0.0,0.0
-0.5738,-0.005,0.1258,0.0,0.0
-0.4308,-0.1577,0.5813,0.0,0.0
-0.2779,-0.0724,-0.0076,0.0,0.0
-0.5396,-0.015,0.6311,0.0,0.0
0.211,0.005,-0.27,0.0,0.0
-0.1024,0.1181,0.2944,0.0,0.0
0.208,-0.005,0.1476,10.612522686025407,0.281542646669395
0.1532,-0.005,0.0083,0.8003629764065336,0.021233058089987725
-0.1222,0.005,-0.4049,0.0,0.0
-0.0733,0.005,-0.1163,0.0,0.0
-0.112,0.005,-0.0923,0.0,0.0
-0.0437,0.005,-0.3709,0.0,0.0
-0.6587,-0.024,0.548,0.0,0.0
0.3524,-0.1987,-0.4524,0.0,0.0
0.3113,-0.1432,-0.479,0.0,0.0
-0.6587,-0.0841,0.0217,0.0,0.0
-0.094,-0.061,-0.0758,0.0,0.0
-0.5673,-0.005,-0.3476,0.0,0.0
-0.1458,0.205,-0.1311,0.0,0.0
-0.337,-0.015,0.626,0.0,0.0
0.0781,0.1438,0.2944,0.811252268602541,0.021521943234069193
-0.4405,-0.005,-0.0122,0.0,0.0
-0.6587,-0.1596,0.4656,0.0,0.0
0.0917,-0.015,-0.0574,0.27450090744101635,0.007282313007053613
-0.2689,0.0689,-0.479,0.0,0.0
-0.2534,0.205,-0.1706,0.0,0.0
0.1813,0.1269,0.071,0.5245009074410163,0.013914634439923926
-0.6507,0.005,-0.2262,0.0,0.0
0.0602,0.205,-0.6741,0.0,0.0
-0.6587,-0.0307,-0.0187,0.0,0.0
-0.1889,0.205,-0.2929,0.0,0.0
0.0679,-0.015,-0.0762,0.5217785843920145,0.013842413153903561
-0.6587,-0.1009,-0.4677,0.0,0.0
0.0346,0.005,0.0562,0.0,0.0
-0.6511,-0.0522,0.5813,0.0,0.0
0.2351,0.205,-0.4467,0.0,0.0
-0.0846,0.205,-0.1154,0.0,0.0
-0.2779,-0.2066,0.3262,3.1810344827586206,0.08439057271479813
-0.5319,-0.005,0.1639,0.0,0.0
0.0891,0.005,-0.4585,0.0,0.0
-0.1313,0.205,-0.0286,0.0,0.0
0.3524,-0.2074,-0.3198,0.0,0.0
-0.0621,0.005,-0.3554,0.0,0.0
0.0212,0.205,-0.255,0.0,0.0
0.0787,-0.015,-0.2177,0.0,0.0
-0.3337,0.005,-0.1214,0.0,0.0
0.0695,0.205,-0.3725,0.0,0.0
-0.3938,-0.211,-0.479,0.0,0.0
0.1107,0.1605,-0.479,0.0,0.0
-0.2705,0.005,-0.3383,0.0,0.0
-0.4629,0.205,-0.288,0.0,0.0
-0.6275,-0.005,0.1879,0.0,0.0
0.1638,0.205,-0.0864,0.0,0.0
-0.1692,-0.005,0.2558,0.0,0.0
-0.1633,0.205,-0.0004,0.0,0.0
0.0951,-0.015,-0.3518,0.0,0.0
-0.2057,0.215,-0.1299,0.0,0.0
-0.1501,-0.179,-0.479,0.0,0.0
0.1484,-0.015,-0.0283,0.0,0.0
-0.3212,-0.005,-0.3217,0.0,0.0
-0.5082,-0.015,0.0058,0.0,0.0
0.0652,-0.015,-0.2932,0.0,0.0
-0.0957,0.005,-0.5919,0.0,0.0
-0.2991,-0.1736,0.5813,0.0,0.0
-0.1315,-0.015,-0.215,0.0,0.0
-0.6587,0.0335,-0.0908,0.0,0.0
0.1274,-0.005,0.2381,0.0,0.0
-0.4499,-0.005,0.7055,0.0,0.0
-0.0523,-0.005,-0.5335,0.0,0.0
-0.4546,-0.015,0.7184,0.0,0.0
-0.5833,0.005,-0.3628,0.0,0.0
0.1062,0.005,-0.1656,0.0,0.0
-0.169,-0.005,-0.4349,0.0,0.0
0.0096,-0.1733,-0.0766,1.5789473684210527,0.04188834589181251
-0.2572,0.205,-0.217,0.0,0.0
0.0214,0.0405,0.1281,4.768148820326679,0.12649558246467174
-0.6124,-0.015,-0.1289,0.0,0.0
-0.2087,0.0903,0.0807,4.787205081669692,0.12700113146681433
0.5428,-0.005,-0.4682,0.0,0.0
-0.0123,0.215,-0.388,0.0,0.0
0.0445,-0.005,-0.398,0.0,0.0
0.0278,0.205,-0.1589,0.0,0.0
-0.5906,-0.015,0.7265,0.25272232304900183,0.006704542718890681
-0.4301,-0.015,-0.1451,0.0,0.0
0.2175,0.205,0.1214,0.0,0.0
0.0301,0.205,-0.4478,0.0,0.0
-0.0297,0.005,-0.3096,0.0,0.0
-0.6272,0.005,-0.2539,0.0,0.0
0.1729,0.1568,-0.479,0.0,0.0
0.138,0.205,-0.5558,0.0,0.0
-0.4101,-0.005,0.3665,0.0,0.0
-0.4935,-0.015,-0.3428,0.0,0.0
0.4442,-0.015,-0.1652,0.7962794918330308,0.02112472616095717
-0.6587,0.0304,-0.1986,0.0,0.0
0.0276,0.205,-0.2385,0.0,0.0
-0.4734,-0.005,-0.1309,0.0,0.0
-0.2087,-0.0031,-0.6127,0.0,0.0
-0.6587,0.0956,-0.2715,0.0,0.0
-0.6587,-0.2147,0.3907,0.0,0.0
-0.0774,0.005,0.1648,9.526769509981852,0.2527383904282723
-0.5102,0.005,-0.1391,0.0,0.0
-0.6587,-0.1623,0.1599,0.0,0.0
-0.1364,0.215,0.0062,0.0,0.0
-0.4004,-0.015,-0.014,0.0,0.0
-0.1436,0.205,-0.4099,0.0,0.0
-0.0257,0.205,-0.1802,0.0,0.0
0.2061,-0.005,-0.4328,0.0,0.0
0.3088,-0.005,-0.2612,0.0,0.0
-0.3349,0.215,-0.1235,0.0,0.0
-0.3434,-0.015,0.2816,0.0,0.0
-0.3902,0.205,-0.1843,0.0,0.0
0.1616,0.1199,0.3044,2.1388384754990923,0.0567418570500012
-0.0032,0.205,-0.0115,0.0,0.0
0.4371,-0.005,-0.2394,0.0,0.0
0.0139,0.005,-0.1131,0.0,0.0
-0.0008,-0.005,-0.3018,0.0,0.0
0.3808,-0.015,-0.0327,0.0,0.0
-0.1411,0.215,-0.111,0.0,0.0
0.0961,0.1814,0.3044,0.5245009074410163,0.013914634439923926
0.2372,0.215,0.1324,0.0,0.0
0.157,0.205,0.0065,0.0,0.0
-0.019,0.215,-0.3982,0.0,0.0
0.4958,-0.005,-0.0333,0.0,0.0
-0.3292,-0.005,-0.4035,0.0,0.0
0.098,0.005,-0.6028,0.0,0.0
-0.1294,-0.005,-0.69,0.0,0.0
-0.2865,-0.005,0.4843,0.0,0.0
0.2143,0.005,-0.6245,0.0,0.0
-0.6587,-0.1128,0.67,0.0,0.0
-0.6587,-0.2035,0.6211,0.0,0.0
-0.3847,-0.005,0.4469,0.0,0.0
-0.6587,0.1232,-0.1754,0.0,0.0
-0.2131,-0.015,0.4881,0.0,0.0
-0.0838,0.1909,-0.479,0.0,0.0
-0.5354,-0.005,-0.1089,0.0,0.0
-0.6587,-0.0768,0.2513,0.0,0.0
0.3635,-0.015,-0.2309,0.0,0.0
-0.3734,-0.015,0.0638,0.0,0.0
-0.1471,-0.005,-0.352,0.0,0.0
-0.0846,0.215,-0.2051,0.0,0.0
0.0024,0.205,0.1176,0.0,0.0
-0.1851,-0.015,-0.0176,0.0,0.0
-0.4529,-0.005,0.1342,0.5449183303085299,0.014456294085076673
-0.4128,-0.005,-0.468,0.0,0.0
-0.6587,0.1377,-0.3381,0.0,0.0
0.4624,-0.015,-0.1377,0.0,0.0
-0.5286,0.1374,-0.479,0.0,0.0
-0.3446,-0.005,-0.1938,0.0,0.0
-0.0404,0.215,-0.4603,0.0,0.0
0.2138,0.205,-0.6563,0.0,0.0
0.0002,0.205,-0.6189,3.178312159709619,0.08431835142877778
0.2854,-0.015,-0.1055,3.1783121597096184,0.08431835142877776
-0.6584,-0.0138,-0.2057,0.0,0.0
-0.1471,0.005,-0.3432,0.0,0.0
0.2134,0.215,-0.5834,0.0,0.0
-0.1696,0.005,-0.0266,0.0,0.0
-0.518,-0.005,0.2659,0.0,0.0
-0.0101,0.005,-0.3579,0.0,0.0
-0.0659,0.1128,0.3044,0.0,0.0
0.1431,0.0473,0.2944,1.843920145190563,0.048917884397794854
-0.0173,0.205,-0.4251,0.0,0.0
-0.4024,-0.005,-0.0795,0.0,0.0
-0.3981,0.005,-0.2337,0.0,0.0
0.0468,0.005,0.2016,1.6129764065335754,0.0427911119670671
-0.0794,0.205,-0.186,0.0,0.0
0.1075,0.161,0.3044,1.5939201451905627,0.042285562964924535
-0.6482,0.005,-0.4695,0.0,0.0
0.51,-0.0145,-0.1437,0.0,0.0
0.4606,-0.015,-0.3755,0.0,0.0
-0.0139,0.205,0.0181,0.0,0.0
-0.5506,-0.005,-0.4118,0.0,0.0
-0.2779,-0.2031,0.5807,0.0,0.0
-0.2087,0.0669,0.2966,0.27450090744101635,0.007282313007053613
-0.4642,0.005,-0.2461,0.0,0.0
-0.4447,-0.005,-0.4405,0.0,0.0
0.1287,0.005,-0.2906,0.0,0.0
