x,y,z,SaliencyScore,NormalizedScore
-0.4719,0.215,0.2377,0.0,0.0
-0.1337,-0.0048,0.2816,0.19868012422360248,0.019968786578228637
-0.0278,-0.005,-0.2069,0.0,0.0
0.1186,-0.005,-0.1176,1.2818322981366461,0.12883339836129537
0.4274,0.0724,-0.5193,0.0,0.0
-0.5837,0.0773,-0.4628,0.0,0.0
0.0598,-0.005,-0.6029,0.0,0.0
-0.385,0.2057,0.6059,0.0,0.0
0.0244,-0.205,-0.5079,0.0,0.0
0.2964,-0.005,-0.3441,0.0,0.0
-0.3126,-0.005,-0.5885,0.0,0.0
0.2027,-0.005,-0.4786,0.0,0.0
-0.3224,0.005,-0.274,0.0,0.0
-0.5359,-0.005,-0.598,0.0,0.0
-0.5837,-0.1849,-0.5582,0.0,0.0
-0.2131,0.215,-0.0718,0.0,0.0
0.2174,-0.215,-0.5058,0.0,0.0
0.4265,0.005,-0.2731,0.0,0.0
-0.1806,0.215,0.1827,0.0,0.0
-0.1816,0.005,0.0522,0.0,0.0
-0.5835,0.2115,-0.4318,0.0,0.0
-0.1306,0.215,-0.2214,0.0,0.0
0.0302,0.1492,-0.2018,0.0,0.0
-0.3512,0.215,-0.3385,0.0,0.0
0.2859,0.215,-0.526,0.0,0.0
-0.5737,0.0592,0.5483,0.0,0.0
0.1217,0.005,-0.4216,0.0,0.0
-0.138,0.005,0.4805,0.3334627329192547,0.033515411626999614
-0.0414,0.005,-0.4078,0.0,0.0
0.5583,0.205,-0.1106,0.0,0.0
-0.5805,0.005,-0.1106,0.5244565217391304,0.052711666016387035
-0.2029,0.1553,0.4292,0.3334627329192547,0.033515411626999614
0.4115,0.205,-0.3197,0.0,0.0
-0.3725,-0.005,0.4531,1.2657608695652174,0.1272181037846274
0.2291,-0.005,-0.6036,0.0,0.0
-0.1201,-0.205,0.0654,0.0,0.0
-0.3013,-0.005,0.0663,0.0,0.0
-0.1954,0.215,-0.077,0.0,0.0
0.2947,0.005,-0.3286,0.0,0.0
0.0396,0.005,-0.403,0.0,0.0
0.0679,-0.1459,0.0025,0.5244565217391304,0.052711666016387035
0.2122,-0.034,0.1788,0.6941770186335404,0.06976980101443621
-0.289,-0.215,-0.5052,0.0,0.0
-0.29,-0.005,0.2227,0.0,0.0
-0.0027,0.205,-0.3601,0.0,0.0
-0.0451,0.205,-0.5552,0.0,0.0
-0.2868,-0.005,-0.5808,0.0,0.0
-0.5072,0.205,-0.0768,0.0,0.0
-0.1821,-0.215,-0.4404,0.0,0.0
-0.5837,-0.0148,-0.3174,0.3327639751552795,0.033445181428014045
-0.5252,-0.005,-0.4301,0.0,0.0
-0.1729,-0.005,0.2886,0.0,0.0
-0.5448,0.1028,-0.6046,0.0,0.0
-0.2918,0.205,-0.3067,0.0,0.0
-0.3382,0.215,-0.5477,0.0,0.0
0.1297,0.205,-0.3703,0.0,0.0
-0.1995,0.005,-0.263,0.0,0.0
-0.5837,0.0943,-0.3064,0.0,0.0
0.1155,-0.005,-0.0136,0.0,0.0
-0.4184,0.215,0.5114,0.0,0.0
-0.4332,0.205,-0.3304,0.0,0.0
-0.2053,0.005,-0.5316,0.0,0.0
-0.5837,0.18,-0.175,0.0,0.0
0.1435,0.005,0.0343,0.6065217391304348,0.060959812719469375
-0.2363,-0.005,0.3753,0.0,0.0
-0.4508,-0.1979,-0.1802,3.8115683229813664,0.3830901287553648
0.2563,-0.1162,-0.3687,0.0,0.0
-0.3397,0.205,0.5812,0.0,0.0
-0.3555,-0.005,0.1065,0.0,0.0
-0.2029,0.0652,0.0103,0.6648291925465839,0.06682013265704254
0.1396,-0.005,-0.3112,0.0,0.0
-0.457,-0.005,0.2829,0.0,0.0
-0.1443,0.0506,-0.2005,0.7133540372670808,0.07169722980881779
0.3486,0.205,-0.375,0.0,0.0
0.1755,-0.005,-0.2818,0.0,0.0
-0.4025,-0.215,-0.3633,0.0,0.0
-0.25,0.205,0.1631,0.0,0.0
-0.1091,-0.205,-0.0559,0.0,0.0
-0.0372,-0.1243,-0.6046,0.0,0.0
-0.1284,0.005,-0.101,0.0,0.0
-0.4084,0.215,-0.0444,0.0,0.0
0.1596,0.215,-0.1253,0.0,0.0
0.21,0.005,-0.1452,1.04472049689441,0.1050019508388607
-0.1577,-0.005,-0.5768,0.0,0.0
-0.4436,-0.1705,-0.2161,0.0,0.0
0.2563,-0.1335,-0.4401,0.0,0.0
-0.5837,-0.0432,-0.3659,0.0,0.0
-0.5772,0.005,-0.246,0.21545031055900624,0.02165431135388217
-0.0134,-0.205,-0.5062,0.0,0.0
0.1581,-0.005,-0.3093,0.0,0.0
-0.1337,-0.1005,-0.0742,0.0,0.0
-0.5749,0.215,-0.2131,0.0,0.0
0.2106,-0.005,-0.3933,0.0,0.0
-0.5837,-0.0975,-0.433,0.0,0.0
-0.5837,0.1313,-0.4718,0.0,0.0
0.3022,0.215,-0.2501,0.0,0.0
0.1232,0.205,-0.1708,0.0,0.0
0.1036,-0.005,-0.4321,0.0,0.0
-0.4389,-0.005,-0.3687,0.0,0.0
0.3163,-0.1439,0.1709,0.46195652173913043,0.046429964884900504
0.2548,-0.005,-0.4719,0.0,0.0
-0.1937,0.215,0.104,0.0,0.0
-0.368,-0.005,-0.5185,0.0,0.0
-0.3042,0.215,0.0922,0.0,0.0
-0.1609,0.205,0.1381,0.0,0.0
-0.4428,0.205,-0.4094,0.0,0.0
-0.0967,0.215,0.1721,0.0,0.0
-0.5737,0.0496,0.4979,2.8265527950310556,0.28408895825204833
-0.35,0.205,-0.4087,0.33625776397515533,0.03379633242294187
-0.5737,0.1864,0.6032,0.0,0.0
-0.4312,-0.005,-0.4992,0.0,0.0
-0.3603,0.205,0.3315,0.0,0.0
-0.4048,-0.1675,-0.2161,0.0,0.0
0.1647,-0.005,-0.4755,0.0,0.0
-0.0966,-0.205,0.0674,0.0,0.0
-0.5066,0.215,-0.5578,0.0,0.0
-0.2637,0.1339,0.4557,1.9068322981366461,0.19165040967616076
0.1185,0.205,-0.188,0.0,0.0
0.2276,0.205,-0.5358,0.0,0.0
-0.0356,0.005,-0.4527,0.0,0.0
-0.2748,0.205,0.0002,0.0,0.0
0.106,-0.005,-0.3847,0.0,0.0
-0.3287,0.005,0.5665,0.0,0.0
-0.1337,-0.1851,-0.0537,0.0,0.0
-0.4912,0.215,0.5401,0.0,0.0
0.2225,0.005,-0.3462,0.0,0.0
-0.4251,-0.005,-0.5272,0.0,0.0
0.2931,0.215,-0.1581,0.0,0.0
-0.5325,0.005,0.1069,0.0,0.0
-0.4762,-0.1355,-0.6046,0.0,0.0
-0.4272,-0.205,-0.4672,0.18819875776397516,0.01891533359344518
-0.5071,-0.148,-0.2161,0.0,0.0
0.2273,0.215,-0.3011,0.0,0.0
0.0115,-0.005,-0.0391,0.0,0.0
0.0264,-0.005,0.1221,2.317468944099379,0.23292235661334373
0.5218,0.215,-0.5215,0.0,0.0
-0.106,0.205,-0.2231,0.0,0.0
-0.0374,-0.005,-0.2767,0.0,0.0
0.5335,0.205,-0.567,0.0,0.0
0.4274,0.0615,-0.3094,0.0,0.0
-0.0643,-0.215,-0.3046,0.0,0.0
-0.1535,0.215,-0.3975,0.0,0.0
-0.0083,0.005,-0.2435,0.0,0.0
-0.2976,0.005,0.0575,0.0,0.0
-0.2336,-0.005,-0.4144,0.0,0.0
0.3912,0.1463,-0.2044,1.688664596273292,0.16972298088177917
0.2561,-0.005,-0.4255,0.0,0.0
-0.0446,-0.005,-0.3975,0.0,0.0
0.1326,-0.215,-0.1922,0.0,0.0
0.2416,-0.005,-0.5843,0.0,0.0
-0.2941,-0.205,-0.4357,0.0,0.0
0.2221,-0.205,-0.1821,0.0,0.0
0.0564,0.005,-0.0706,0.0,0.0
-0.5837,-0.0074,-0.314,0.5237577639751553,0.05264143581740148
-0.257,-0.205,-0.4674,0.0,0.0
-0.242,0.205,0.4021,0.0,0.0
0.1836,-0.1563,-0.6046,0.0,0.0
-0.4438,0.205,0.0337,0.0,0.0
0.171,-0.215,-0.6031,0.0,0.0
0.1054,-0.005,-0.0586,0.40784161490683235,0.040991026141240734
-0.3711,0.215,0.3166,0.0,0.0
-0.0233,-0.005,-0.5047,0.0,0.0
-0.247,-0.005,-0.3566,0.0,0.0
0.294,0.005,-0.306,0.0,0.0
-0.0929,0.215,0.5487,0.0,0.0
-0.2662,0.005,-0.2578,0.0,0.0
0.2038,-0.005,-0.5661,0.0,0.0
-0.4704,-0.005,0.5241,0.0,0.0
-0.3655,-0.005,-0.2564,0.0,0.0
-0.0797,-0.005,-0.3692,0.0,0.0
-0.5837,0.1821,-0.2257,0.0,0.0
0.1678,0.005,0.0901,0.9707298136645963,0.09756535310183378
0.2401,-0.0868,-0.6046,0.0,0.0
0.0083,0.205,-0.4686,0.0,0.0
-0.3659,0.215,-0.0064,0.0,0.0
-0.5837,-0.1703,-0.5898,0.0,0.0
-0.4651,0.005,0.4249,0.0,0.0
-0.2264,0.205,-0.3549,0.0,0.0
-0.1933,-0.0711,-0.6046,0.0,0.0
-0.2338,-0.205,-0.2361,0.0,0.0
0.0137,-0.005,-0.1728,0.0,0.0
-0.2896,0.205,0.2168,0.0,0.0
-0.3232,-0.205,-0.3838,0.0,0.0
-0.5837,0.0694,0.4248,0.0,0.0
0.2246,-0.005,-0.5026,0.0,0.0
-0.013,-0.005,-0.51,0.0,0.0
-0.009,-0.205,-0.3097,0.0,0.0
-0.1675,0.205,-0.3427,0.0,0.0
-0.3083,0.005,0.047,0.3327639751552795,0.033445181428014045
0.0163,-0.205,0.1328,0.0,0.0
-0.5383,0.005,0.5122,0.0,0.0
-0.1955,0.205,0.1561,0.0,0.0
-0.0505,-0.005,-0.0512,0.0,0.0
-0.1562,0.215,0.2827,0.0,0.0
-0.3578,0.088,-0.6046,0.0,0.0
-0.2209,0.215,0.1689,0.0,0.0
0.183,-0.0443,0.0025,3.1031055900621123,0.311884510339446
-0.5837,0.0293,-0.5549,0.0,0.0
-0.2227,0.0942,-0.6046,0.0,0.0
0.3827,-0.005,-0.5876,0.0,0.0
-0.157,0.205,-0.4976,0.0,0.0
-0.4065,-0.215,-0.555,0.0,0.0
0.0323,-0.005,-0.0452,0.0,0.0
0.2563,-0.0846,-0.2291,0.0,0.0
-0.5771,0.005,0.201,0.0,0.0
-0.2087,0.205,0.3197,0.0,0.0
-0.5263,0.205,0.4036,0.0,0.0
-0.5351,0.005,0.2106,0.0,0.0
0.5532,0.205,-0.4788,0.0,0.0
-0.4731,0.205,-0.5717,0.0,0.0
0.2838,-0.2007,0.1688,0.0,0.0
-0.1537,-0.005,0.5171,0.20846273291925466,0.02095200936402653
-0.3022,-0.005,0.4738,0.0,0.0
0.0176,-0.215,-0.3089,0.0,0.0
0.0887,-0.005,-0.4273,0.0,0.0
-0.3831,-0.1624,-0.1569,1.1892857142857145,0.11953179867342958
-0.5482,0.215,0.1499,0.0,0.0
-0.0388,-0.205,-0.2174,0.0,0.0
-0.11,-0.078,0.1788,0.7103260869565218,0.07139289894654702
0.4077,0.1749,-0.6046,0.0,0.0
-0.4618,0.205,0.585,0.0,0.0
0.0638,-0.215,-0.2155,0.0,0.0
-0.4294,0.215,-0.0917,0.0,0.0
0.192,-0.005,-0.3349,0.0,0.0
-0.2241,0.213,0.6059,0.0,0.0
0.4006,-0.005,-0.565,0.0,0.0
-0.0322,-0.215,-0.0473,0.0,0.0
-0.1194,-0.005,0.1111,1.331055900621118,0.13378072571205618
0.1356,-0.1765,-0.6046,0.0,0.0
0.1645,0.005,-0.256,0.0,0.0
0.3163,-0.2099,-0.4688,0.0,0.0
-0.5837,-0.1732,-0.3559,0.0,0.0
-0.4708,0.205,-0.484,0.0,0.0
0.0989,-0.005,-0.4529,0.0,0.0
-0.4466,0.215,-0.4768,0.0,0.0
-0.5115,-0.005,-0.5891,0.0,0.0
0.1518,-0.005,-0.1953,0.3812888198757764,0.03832227857978931
0.4155,-0.005,-0.3926,0.0,0.0
-0.3217,0.215,-0.4509,0.0,0.0
-0.3272,-0.215,-0.3671,0.0,0.0
-0.5837,0.1887,0.4346,0.0,0.0
0.2563,-0.1636,-0.2292,0.0,0.0
0.1992,-0.205,-0.5491,0.0,0.0
-0.0308,-0.005,-0.0037,0.3327639751552795,0.033445181428014045
0.2324,-0.005,-0.1071,0.6697204968944099,0.06731174404994147
-0.5466,0.205,-0.0573,0.0,0.0
-0.4301,0.1792,-0.6046,0.0,0.0
-0.2089,0.205,-0.031,0.0,0.0
-0.1084,0.005,-0.4446,0.0,0.0
0.0255,-0.1991,-0.6046,0.0,0.0
-0.5128,0.005,0.5605,0.3355590062111801,0.0337261022239563
-0.0061,0.005,-0.1343,0.38897515527950316,0.039094810768630514
-0.3032,0.005,-0.3791,0.0,0.0
-0.5809,-0.005,-0.6048,0.0,0.0
-0.2862,0.005,-0.2414,0.0,0.0
0.0168,-0.215,0.1425,0.0,0.0
-0.5837,0.0603,0.5874,0.0,0.0
0.1713,0.005,-0.3058,0.0,0.0
-0.3073,0.205,0.3602,0.0,0.0
0.0284,-0.005,-0.0006,0.20846273291925466,0.02095200936402653
-0.1603,-0.215,-0.2542,0.0,0.0
-0.206,0.005,-0.2899,0.0,0.0
0.3788,0.205,-0.4294,0.0,0.0
-0.2333,0.205,-0.4601,0.0,0.0
-0.3462,0.215,0.1032,0.0,0.0
0.2561,-0.215,-0.5809,0.0,0.0
0.4274,-0.0003,-0.3772,0.0,0.0
0.4753,0.205,-0.3837,0.0,0.0
-0.3255,0.215,-0.3974,0.5209627329192547,0.05236051502145923
-0.3153,0.205,0.5156,0.0,0.0
0.0884,0.215,-0.4196,0.0,0.0
0.0929,-0.215,0.1543,0.0,0.0
0.2292,0.215,-0.3184,0.0,0.0
-0.0338,0.1673,-0.6046,0.0,0.0
0.373,0.1306,-0.6046,0.0,0.0
-0.5633,0.205,-0.5827,0.0,0.0
0.3014,-0.005,-0.2499,0.0,0.0
-0.5242,-0.005,-0.2632,0.0,0.0
-0.2394,0.005,-0.5202,0.0,0.0
-0.1078,0.005,-0.2036,2.7462732919254655,0.27602028872415135
-0.2806,-0.005,-0.0776,0.0,0.0
-0.154,-0.205,-0.5284,0.0,0.0
0.256,-0.005,-0.0154,0.0,0.0
-0.4867,0.005,-0.3665,0.0,0.0
0.2067,-0.215,-0.3999,0.0,0.0
-0.1521,-0.005,-0.5744,0.0,0.0
-0.455,-0.1064,-0.1685,0.0,0.0
0.1688,0.205,-0.2683,0.0,0.0
0.2583,-0.005,-0.1435,0.0,0.0
-0.4528,-0.005,-0.5282,0.0,0.0
-0.1105,-0.005,-0.0823,1.4399844720496895,0.1447288333983613
-0.0654,-0.205,0.1716,0.0,0.0
-0.3119,-0.005,0.4197,0.0,0.0
-0.1866,0.1648,-0.2002,0.0,0.0
0.0295,-0.1031,0.0025,0.6704192546583851,0.06738197424892704
0.1091,0.215,-0.1977,0.0,0.0
0.1069,0.005,-0.5315,0.0,0.0
0.5849,0.205,-0.2992,0.0,0.0
-0.5349,-0.215,-0.2272,0.0,0.0
-0.3728,-0.005,-0.1068,0.0,0.0
-0.44,0.0165,0.4557,0.0,0.0
-0.1112,-0.215,-0.1747,0.0,0.0
-0.3501,-0.005,0.3403,0.19169254658385093,0.019266484588373
-0.0932,-0.0713,0.1788,0.8517080745341614,0.08560280920795942
0.0042,-0.1501,0.0025,0.5244565217391304,0.052711666016387035
-0.5737,0.1415,0.4613,0.33486024844720497,0.03365587202497074
-0.181,0.215,-0.588,0.0,0.0
-0.0137,-0.005,-0.0574,0.0,0.0
-0.4449,-0.005,-0.1343,0.5230590062111802,0.05257120561841592
-0.4947,-0.005,0.5087,0.0,0.0
-0.1075,-0.005,-0.1036,0.0,0.0
0.2477,-0.1416,0.1788,0.20776397515527953,0.02088177916504097
-0.1732,-0.205,-0.5913,0.0,0.0
0.2002,-0.0062,-0.6046,0.0,0.0
-0.3355,0.005,-0.3712,0.0,0.0
-0.5501,0.215,-0.1866,0.0,0.0
0.1494,-0.005,-0.2921,0.0,0.0
-0.1557,0.005,0.5002,0.31459627329192547,0.03161919625438939
-0.025,-0.0502,0.1788,2.634860248447205,0.26482247366367534
-0.0374,-0.005,-0.5828,0.0,0.0
-0.1389,0.0784,-0.6046,0.0,0.0
-0.3759,0.005,-0.5832,0.0,0.0
0.4031,-0.005,-0.5271,0.0,0.0
-0.2029,0.0959,0.0427,1.6948757763975155,0.17034724931720638
-0.1207,0.205,0.1446,0.0,0.0
-0.4714,0.205,-0.5961,0.0,0.0
0.1222,0.215,-0.5003,0.0,0.0
-0.2023,0.215,0.1279,0.0,0.0
-0.4058,-0.215,-0.2614,0.0,0.0
-0.3092,-0.215,-0.5221,0.0,0.0
-0.0897,-0.005,-0.0932,0.9239130434782609,0.09285992976980101
-0.2994,-0.005,-0.1003,0.18819875776397516,0.01891533359344518
-0.4036,0.0155,0.4557,1.44138198757764,0.14486929379633243
-0.0802,-0.005,-0.2204,0.0,0.0
-0.2029,0.0666,-0.1344,0.7245341614906833,0.07282091299258682
-0.3569,0.215,-0.1012,0.0,0.0
0.1094,-0.005,-0.5057,0.0,0.0
-0.1756,-0.005,-0.4325,0.0,0.0
0.2242,0.215,-0.2732,0.0,0.0
-0.0162,-0.005,-0.3901,0.0,0.0
-0.318,0.005,0.2844,0.0,0.0
0.224,0.205,-0.3898,0.0,0.0
-0.0176,-0.005,-0.5451,0.0,0.0
-0.5684,-0.005,-0.5287,0.0,0.0
-0.5045,0.205,-0.2231,0.0,0.0
-0.4948,0.215,-0.597,0.0,0.0
-0.4746,-0.005,-0.5269,0.0,0.0
-0.458,0.205,-0.2119,0.0,0.0
-0.3253,0.215,0.283,0.0,0.0
-0.4378,0.1464,-0.6046,0.0,0.0
-0.5837,0.0955,0.369,0.34324534161490683,0.0344986344127975
-0.1849,0.005,-0.2688,0.0,0.0
-0.0137,-0.215,-0.5284,0.0,0.0
-0.2665,-0.005,-0.1005,0.0,0.0
-0.5025,-0.215,-0.2608,0.0,0.0
-0.4595,0.205,-0.2911,0.0,0.0
0.038,-0.205,-0.0723,0.0,0.0
0.2673,-0.005,0.1353,1.2175465838509316,0.12237222005462348
-0.0646,0.005,0.0629,0.7273291925465839,0.07310183378852907
-0.2872,0.205,-0.0517,0.0,0.0
0.0207,-0.005,-0.3954,0.0,0.0
-0.4915,0.215,0.1423,0.0,0.0
-0.5837,0.0008,-0.5929,0.0,0.0
-0.4127,-0.005,0.0631,0.0,0.0
0.2601,-0.215,-0.2113,0.0,0.0
-0.5837,0.0326,-0.3956,0.0,0.0
0.0269,0.005,-0.5161,0.0,0.0
-0.1916,-0.0704,-0.2161,0.9595496894409938,0.09644166991806477
0.0606,0.215,-0.441,0.0,0.0
-0.3507,0.215,-0.1002,0.0,0.0
-0.5041,0.215,-0.1634,0.0,0.0
0.4858,0.205,-0.1211,0.0,0.0
0.1954,-0.205,-0.3796,0.0,0.0
0.2739,-0.215,-0.2797,0.0,0.0
-0.5837,0.0984,-0.2723,0.0,0.0
-0.2029,0.0788,-0.1726,2.253260869565217,0.22646898166211468
-0.2292,0.205,-0.4464,0.0,0.0
-0.1337,-0.0983,-0.0445,0.0,0.0
0.0715,-0.005,-0.4841,0.0,0.0
0.299,0.205,-0.5028,0.0,0.0
-0.4782,0.0746,0.4557,1.4225931677018635,0.14298088177916504
-0.3542,-0.005,-0.195,0.0,0.0
0.1121,-0.005,-0.3621,0.0,0.0
-0.1902,0.205,0.405,0.0,0.0
-0.2029,0.095,0.4325,3.685326086956522,0.3704018728053063
0.2223,-0.205,-0.0186,0.0,0.0
-0.2725,0.205,0.5484,0.0,0.0
-0.2451,0.005,-0.2601,0.0,0.0
-0.2989,0.1946,0.4557,0.0,0.0
-0.4952,0.005,-0.1046,0.0,0.0
0.4274,0.0101,-0.4475,0.0,0.0
-0.5837,0.11,0.2257,0.0,0.0
-0.242,0.205,0.5036,0.0,0.0
0.2563,-0.0506,-0.4887,0.0,0.0
0.1661,0.215,-0.386,0.0,0.0
-0.1262,-0.1307,0.1788,0.741304347826087,0.07450643776824034
0.3219,-0.005,-0.407,0.0,0.0
-0.1376,0.005,0.0217,0.5202639751552796,0.052290284822473665
-0.3211,0.205,0.2536,0.0,0.0
0.0888,-0.215,0.1212,0.0,0.0
-0.3414,-0.005,-0.0976,0.0,0.0
-0.5837,0.1097,0.4376,0.0,0.0
-0.3115,0.215,0.4877,0.0,0.0
0.0283,0.005,-0.2733,0.0,0.0
0.15,-0.005,-0.0231,0.9476708074534161,0.09524775653531017
-0.2202,0.215,0.0455,0.0,0.0
0.1656,0.005,-0.461,0.0,0.0
-0.0612,-0.0943,-0.6046,0.0,0.0
-0.2029,0.1801,0.2219,0.0,0.0
-0.1974,-0.215,-0.4742,0.0,0.0
-0.3803,-0.005,0.445,0.3404503105590062,0.034217713616855244
0.2563,-0.1651,-0.4576,0.0,0.0
0.0144,-0.005,-0.4672,0.0,0.0
-0.1337,-0.1287,-0.1386,0.0,0.0
-0.4365,0.205,-0.1992,0.0,0.0
0.4512,0.215,-0.127,0.0,0.0
-0.1583,-0.2048,-0.2161,0.0,0.0
0.1468,-0.205,-0.4402,0.0,0.0
0.2418,0.215,-0.5331,0.0,0.0
-0.5837,0.2029,0.2378,0.0,0.0
-0.2864,0.005,-0.017,0.0,0.0
-0.1873,0.205,0.3648,0.0,0.0
0.1245,-0.005,0.0281,0.5160714285714285,0.051868903628560274
0.0743,0.005,-0.3337,0.0,0.0
-0.2615,0.005,-0.4006,0.0,0.0
0.0214,-0.215,-0.3784,0.0,0.0
-0.3682,-0.005,0.1134,0.0,0.0
0.3624,0.1515,-0.2042,0.0,0.0
0.1612,-0.005,-0.2493,0.0,0.0
-0.5837,0.0027,-0.5208,0.0,0.0
0.1679,0.005,-0.106,0.8537267080745341,0.08580569644947326
0.0222,0.205,-0.4515,0.0,0.0
-0.0854,-0.005,-0.1803,0.4605590062111802,0.04628950448692938
0.0447,-0.005,-0.4907,0.0,0.0
-0.1565,-0.005,-0.3341,0.0,0.0
0.4274,0.0011,-0.4697,0.0,0.0
0.2563,-0.1671,-0.4001,0.0,0.0
-0.5652,0.005,0.268,0.0,0.0
0.2664,-0.005,0.0888,0.4232142857142857,0.04253609051892313
-0.5837,0.1726,-0.218,0.0,0.0
-0.091,-0.215,-0.2496,0.0,0.0
-0.1766,0.215,0.2591,0.0,0.0
0.233,0.005,-0.503,0.0,0.0
-0.2029,0.0117,0.1818,1.9061335403726707,0.19158017947717515
-0.3905,-0.005,0.5158,0.3355590062111801,0.0337261022239563
-0.0143,-0.005,0.0671,0.7447981366459626,0.07485758876316814
-0.3923,0.215,0.4939,0.0,0.0
-0.4346,-0.215,-0.3463,0.0,0.0
-0.3789,-0.0545,-0.6046,0.0,0.0
0.1113,0.005,-0.3572,0.0,0.0
-0.2844,0.205,0.3288,0.0,0.0
0.0973,0.205,-0.506,0.0,0.0
-0.1299,-0.215,0.072,0.0,0.0
-0.4443,0.005,0.6042,0.33625776397515533,0.03379633242294187
0.0146,0.005,0.1197,2.902717391304348,0.29174404994147485
-0.2939,-0.215,-0.4601,0.0,0.0
0.2077,-0.205,-0.1489,0.0,0.0
0.069,0.005,-0.1965,1.7790372670807455,0.17880608661724542
-0.5837,0.013,0.1566,0.0,0.0
-0.4824,0.205,-0.0488,0.0,0.0
-0.1337,-0.0432,-0.2233,0.0,0.0
0.2113,0.205,-0.1593,0.0,0.0
0.172,-0.215,-0.2909,0.0,0.0
-0.4188,-0.205,-0.2912,0.0,0.0
-0.5837,-0.1868,-0.5408,0.0,0.0
-0.3909,-0.005,0.5432,0.0,0.0
-0.3907,0.005,-0.3847,0.0,0.0
0.2691,0.005,-0.523,0.0,0.0
0.057,-0.205,-0.57,0.0,0.0
0.018,0.1117,-0.2017,2.6180900621118015,0.26313694888802186
-0.3694,0.2134,-0.6046,0.0,0.0
-0.2987,0.205,0.5019,0.0,0.0
-0.1526,0.005,0.3116,0.33625776397515533,0.03379633242294187
-0.182,0.005,-0.4669,0.0,0.0
0.2201,0.215,-0.411,0.0,0.0
-0.4886,-0.1163,-0.2161,0.0,0.0
0.068,-0.2117,-0.6047,0.4529503105590062,0.04552477565353102
0.0372,-0.0592,-0.6046,0.0,0.0
-0.5216,-0.005,0.5793,0.3798913043478261,0.03818181818181818
0.3831,0.215,-0.3858,0.0,0.0
0.3001,0.205,-0.5642,0.0,0.0
-0.4403,0.005,0.143,0.0,0.0
0.0073,-0.205,-0.4018,0.0,0.0
-0.5814,0.205,-0.1212,0.0,0.0
-0.1637,0.215,0.163,0.0,0.0
-0.5681,-0.1748,-0.2161,0.0,0.0
-0.5837,0.1131,-0.2072,0.0,0.0
0.1834,-0.0127,-0.6046,0.0,0.0
-0.2488,-0.215,-0.4838,0.0,0.0
-0.1743,-0.195,-0.2161,0.0,0.0
0.2051,0.215,-0.3614,0.0,0.0
0.2338,-0.1465,0.1688,0.0,0.0
-0.1108,0.215,-0.4153,0.0,0.0
-0.5675,-0.005,-0.4495,0.0,0.0
0.3824,0.215,-0.349,0.0,0.0
-0.3474,-0.005,0.5768,0.3327639751552795,0.033445181428014045
0.2563,-0.0306,-0.0849,0.0,0.0
0.011,-0.215,-0.5882,0.0,0.0
0.2034,-0.018,0.0025,0.0,0.0
-0.4636,-0.215,-0.5145,0.0,0.0
-0.271,0.0806,0.4557,0.5237577639751553,0.05264143581740148
-0.5837,0.0011,0.289,0.0,0.0
-0.4706,0.005,0.1085,0.0,0.0
-0.5737,0.0891,0.5717,0.0,0.0
0.2017,-0.005,-0.362,0.0,0.0
-0.1009,-0.215,0.1467,0.33695652173913043,0.03386656262192743
-0.0882,0.005,0.0367,1.9103260869565222,0.1920015606710886
-0.2029,0.0705,0.1639,1.4295807453416147,0.14368318376902064
-0.1631,0.005,-0.557,0.0,0.0
-0.1683,0.205,-0.3721,0.0,0.0
-0.2295,0.1494,0.4557,0.0,0.0
-0.3659,0.215,-0.1528,0.0,0.0
0.0489,-0.005,-0.1811,1.9686335403726711,0.19786188060866175
-0.5837,0.0362,-0.0075,0.0,0.0
0.3334,0.005,-0.3622,0.0,0.0
0.1147,0.005,-0.5989,0.0,0.0
0.0359,-0.215,-0.1996,0.0,0.0
-0.5478,-0.005,0.4222,0.0,0.0
-0.2121,-0.005,-0.0145,0.6669254658385094,0.06703082325399923
-0.4888,0.005,-0.3143,0.0,0.0
0.1661,-0.205,-0.5832,0.0,0.0
0.0107,-0.0626,-0.6046,0.0,0.0
-0.5837,0.0646,-0.5954,0.0,0.0
-0.5271,0.205,-0.5226,0.0,0.0
-0.5837,0.1577,-0.1785,0.0,0.0
-0.4542,0.205,-0.5791,0.0,0.0
0.2421,-0.005,-0.5581,0.0,0.0
-0.4059,-0.005,-0.3626,0.0,0.0
0.0125,0.005,-0.3208,0.0,0.0
-0.0198,-0.215,-0.3005,0.0,0.0
-0.3386,-0.005,-0.4761,0.0,0.0
0.5471,0.205,-0.1589,0.0,0.0
-0.4585,-0.005,0.2744,0.0,0.0
-0.5457,0.005,-0.2467,0.0,0.0
0.3438,0.205,-0.2895,0.0,0.0
0.2797,0.215,-0.1052,0.18819875776397516,0.01891533359344518
-0.388,0.005,-0.3875,0.0,0.0
0.1839,0.215,-0.4142,0.0,0.0
-0.5253,0.005,0.4307,0.0,0.0
-0.5002,0.005,-0.4828,0.0,0.0
-0.5212,0.205,0.4991,0.0,0.0
0.073,-0.1728,-0.6046,0.0,0.0
-0.0829,-0.005,-0.3102,0.0,0.0
-0.0039,-0.0914,0.0025,0.37709627329192547,0.037900897385875924
-0.0284,-0.1451,-0.6046,0.0,0.0
-0.2436,0.005,0.4849,0.0,0.0
-0.455,-0.1967,-0.1675,4.334627329192546,0.4356613343737807
-0.5837,0.0927,0.3856,0.34324534161490683,0.0344986344127975
-0.2107,0.205,-0.338,0.0,0.0
-0.5736,-0.1411,-0.2161,0.0,0.0
-0.2516,0.0905,-0.6046,0.0,0.0
0.0477,-0.215,0.1055,0.0,0.0
0.1989,-0.005,-0.4183,0.0,0.0
-0.0854,0.205,-0.0403,0.0,0.0
-0.1889,-0.076,-0.2161,0.7238354037267081,0.07275068279360124
0.0773,0.1873,-0.2021,0.0,0.0
-0.5178,0.005,0.5339,0.3313664596273292,0.033304721030042915
0.1252,0.1594,-0.6046,0.0,0.0
0.1466,0.0034,-0.6046,0.0,0.0
0.2832,0.005,-0.3718,0.0,0.0
-0.5245,0.205,-0.2548,0.0,0.0
0.0565,-0.205,-0.0815,0.0,0.0
-0.0882,0.215,0.2904,0.0,0.0
0.2775,-0.005,-0.4364,0.0,0.0
0.0112,-0.1253,0.1688,1.7123447204968945,0.1721030042918455
0.0015,-0.205,-0.2333,0.0,0.0
0.1272,-0.005,-0.559,0.0,0.0
-0.0946,0.0902,-0.2009,2.23610248447205,0.224744440109247
-0.2867,0.205,0.3174,0.0,0.0
0.5244,0.205,-0.5845,0.0,0.0
-0.5093,-0.005,-0.589,0.0,0.0
-0.2334,0.005,-0.5384,0.0,0.0
-0.0043,-0.005,-0.5609,0.0,0.0
-0.37,0.005,0.089,0.0,0.0
-0.1832,0.205,0.187,0.0,0.0
-0.13,-0.122,0.1688,0.0,0.0
-0.5837,0.0937,-0.4146,0.0,0.0
-0.2105,0.07,0.4557,3.174378881987578,0.3190479906359735
-0.3029,-0.005,0.5034,0.0,0.0
0.1799,0.005,0.177,2.245186335403727,0.2256574326960593
-0.1019,0.215,0.0431,0.0,0.0
-0.1337,-0.2062,0.1632,0.7989130434782609,0.08029652750682793
-0.5741,-0.205,-0.2458,0.0,0.0
-0.5813,0.005,-0.0469,0.0,0.0
0.307,0.005,-0.0385,0.18959627329192547,0.019055793991416308
-0.153,0.205,0.5294,0.0,0.0
-0.3966,0.205,-0.0057,0.0,0.0
-0.2044,-0.005,0.2488,0.8572204968944099,0.08615684744440108
-0.2585,0.005,-0.4249,0.0,0.0
-0.2847,0.2077,0.3846,0.0,0.0
-0.5837,0.1006,-0.3111,0.0,0.0
0.3619,0.005,-0.4021,0.0,0.0
0.2775,0.1076,-0.2035,0.20846273291925466,0.02095200936402653
0.1757,0.1149,-0.6046,0.0,0.0
-0.3292,0.205,0.065,0.0,0.0
0.2892,0.005,-0.5894,0.0,0.0
0.2568,0.215,-0.4929,0.0,0.0
-0.2698,0.215,0.3932,0.0,0.0
-0.3959,-0.005,-0.5189,0.0,0.0
-0.3646,0.205,0.5482,0.0,0.0
-0.2354,-0.005,0.2411,0.0,0.0
-0.0376,0.005,-0.2352,0.0,0.0
0.2506,-0.0192,0.1688,1.1128105590062112,0.11184549356223175
-0.5378,0.205,0.1163,0.0,0.0
-0.3891,-0.005,0.0658,0.3341614906832298,0.03358564182598517
-0.2127,0.215,0.2397,0.0,0.0
0.1935,0.005,0.0118,0.0,0.0
-0.1119,0.205,-0.2941,0.0,0.0
-0.3569,0.205,0.3037,0.0,0.0
0.0131,0.005,-0.2971,0.0,0.0
-0.0396,-0.205,-0.1859,0.0,0.0
0.3006,-0.205,-0.5692,0.0,0.0
0.0796,0.005,-0.5162,0.0,0.0
-0.1337,0.001,0.2405,2.0615683229813664,0.2072024970737417
-0.5837,0.2016,-0.3093,0.0,0.0
0.2309,0.1514,-0.2032,0.0,0.0
-0.4534,-0.215,-0.5797,1.0108695652173914,0.10159968786578229
-0.2294,-0.1158,-0.2161,0.0,0.0
-0.0802,-0.174,0.1788,0.7161490683229814,0.07197815060476005
-0.0837,0.215,0.4258,0.0,0.0
0.2264,-0.1592,0.1688,0.0,0.0
-0.041,0.215,-0.3298,0.0,0.0
-0.5837,0.004,0.2686,0.33625776397515533,0.03379633242294187
-0.37,-0.1824,-0.6046,0.0,0.0
-0.3379,0.215,0.135,0.0,0.0
-0.2525,0.205,0.0519,0.0,0.0
0.1769,-0.005,-0.4193,0.0,0.0
0.4786,0.215,-0.1181,0.0,0.0
-0.0578,-0.005,0.1297,0.5876552795031056,0.05906359734685915
-0.4186,0.205,-0.1152,0.0,0.0
-0.2999,0.005,-0.1523,0.0,0.0
-0.5835,0.2136,-0.4194,0.0,0.0
-0.1052,0.215,0.3734,0.0,0.0
-0.3763,-0.215,-0.3078,0.0,0.0
0.0062,-0.005,-0.4247,0.0,0.0
-0.1962,-0.1591,-0.2161,0.0,0.0
-0.3237,0.215,-0.1032,0.0,0.0
0.1433,-0.215,-0.4437,0.0,0.0
-0.2253,0.005,-0.4458,0.0,0.0
-0.2305,0.005,-0.5722,0.0,0.0
0.2009,0.215,-0.285,0.0,0.0
0.2199,-0.1964,0.1688,0.0,0.0
-0.5837,-0.0386,-0.2875,0.6732142857142858,0.06766289504486929
-0.5575,0.215,-0.5765,0.0,0.0
-0.5406,0.215,0.569,0.0,0.0
-0.1464,-0.005,-0.2551,0.0,0.0
-0.0373,-0.215,-0.2553,0.0,0.0
0.0184,-0.005,-0.0994,0.5300465838509317,0.053273507608271556
-0.5837,-0.0573,-0.4765,0.0,0.0
-0.1582,0.005,0.3272,0.0,0.0
-0.2081,0.205,0.5935,0.0,0.0
0.1454,0.205,-0.4184,0.3355590062111801,0.0337261022239563
0.0496,-0.005,-0.3616,0.0,0.0
-0.2467,0.205,0.5835,0.0,0.0
-0.3923,0.215,-0.5559,0.0,0.0
0.471,0.215,-0.1987,0.0,0.0
-0.5073,-0.005,-0.4373,0.0,0.0
-0.4338,-0.215,-0.2769,0.0,0.0
-0.0432,-0.005,-0.4122,0.0,0.0
-0.1672,0.205,-0.4573,0.0,0.0
-0.3803,0.005,-0.418,0.0,0.0
0.124,-0.215,-0.2187,0.0,0.0
-0.2249,0.215,0.2496,0.0,0.0
0.1239,-0.005,-0.143,0.8704968944099379,0.0874912212251268
0.2563,-0.0216,-0.0714,0.39316770186335404,0.03951619196254389
0.1548,0.005,-0.2235,0.0,0.0
-0.0299,-0.215,0.0593,0.20566770186335406,0.020671088568084278
-0.0178,-0.205,-0.0072,0.0,0.0
-0.2038,0.1898,-0.6046,0.0,0.0
-0.5401,0.205,-0.4816,0.0,0.0
-0.0239,-0.005,-0.0737,0.4612577639751553,0.04635973468591494
-0.1337,-0.0016,-0.4653,0.0,0.0
-0.3923,-0.005,0.3786,0.0,0.0
-0.0587,0.1514,-0.6046,0.0,0.0
-0.2436,0.205,0.1048,0.0,0.0
0.2563,-0.0743,-0.0126,0.0,0.0
0.2791,-0.1145,0.1688,1.1267857142857143,0.11325009754194303
0.2729,-0.205,0.0045,0.0,0.0
0.2263,-0.215,0.1571,0.0,0.0
-0.3634,0.005,-0.5786,0.0,0.0
-0.5837,0.1617,0.4764,0.0,0.0
-0.5837,0.1606,-0.0436,0.0,0.0
-0.4375,-0.005,-0.5538,0.0,0.0
-0.0243,0.005,-0.0183,0.0,0.0
0.2563,-0.0441,-0.5147,0.0,0.0
0.0432,0.005,-0.445,0.0,0.0
-0.1356,0.215,0.3896,0.0,0.0
-0.195,-0.1649,-0.6046,0.0,0.0
-0.1639,0.215,-0.0165,0.0,0.0
0.2758,0.005,0.0919,0.23361801242236024,0.023480296527506828
0.3131,-0.0509,0.1688,2.1729037267080744,0.21839250877877484
0.4266,0.205,-0.1957,0.0,0.0
0.4044,-0.005,-0.5323,0.0,0.0
-0.2213,-0.005,-0.3899,0.0,0.0
0.2217,-0.005,-0.3695,0.0,0.0
-0.189,0.205,0.0137,0.0,0.0
-0.0888,-0.215,0.0649,0.0,0.0
0.2318,-0.205,-0.5005,0.0,0.0
0.2411,-0.215,-0.4238,0.0,0.0
-0.1955,0.215,0.4497,0.0,0.0
-0.4971,0.205,-0.1783,0.0,0.0
0.2435,0.205,-0.5517,0.0,0.0
-0.4908,0.005,-0.0632,0.0,0.0
-0.0636,-0.007,-0.6046,0.0,0.0
0.1483,-0.215,0.1463,0.0,0.0
-0.2457,0.005,-0.4678,0.0,0.0
0.3968,-0.005,-0.2489,0.0,0.0
-0.5837,0.1353,0.4032,0.0,0.0
0.2563,-0.0941,-0.1019,0.0,0.0
-0.1367,0.205,0.5256,0.0,0.0
0.2563,-0.1132,-0.1191,0.0,0.0
-0.3836,0.0299,-0.6046,0.0,0.0
0.0506,-0.0464,0.0025,0.5300465838509316,0.05327350760827155
-0.128,-0.205,-0.0843,0.0,0.0
-0.0197,-0.005,-0.3263,0.0,0.0
-0.5837,0.0318,-0.4818,0.0,0.0
-0.0084,0.005,-0.5642,0.0,0.0
-0.2658,-0.215,-0.2734,0.0,0.0
0.3129,-0.205,-0.4697,0.0,0.0
-0.5737,0.0303,0.5877,0.3607142857142857,0.036254389387436595
-0.5474,0.215,0.2688,0.0,0.0
-0.0544,-0.005,0.0216,0.0,0.0
-0.5395,0.205,0.2827,0.0,0.0
-0.2525,0.205,0.5057,0.0,0.0
-0.1109,-0.005,-0.2099,0.7126552795031056,0.07162699960983222
-0.455,-0.2087,-0.1506,3.1432453416149073,0.31591884510339446
0.2492,-0.005,-0.1681,0.6718167701863355,0.06752243464689817
-0.4145,0.215,0.1154,0.0,0.0
-0.4982,0.005,-0.0695,0.0,0.0
-0.2592,0.205,0.0292,0.0,0.0
-0.1248,-0.005,-0.2993,0.0,0.0
0.2175,0.005,-0.2436,0.0,0.0
-0.1833,0.205,-0.5703,0.0,0.0
-0.0437,-0.005,-0.5672,0.0,0.0
0.4274,0.193,-0.3818,0.0,0.0
-0.0648,-0.005,0.1309,0.20776397515527953,0.02088177916504097
0.2708,-0.005,-0.5229,0.0,0.0
0.2563,-0.0488,-0.0603,0.39316770186335404,0.03951619196254389
-0.2368,0.0826,-0.6046,0.0,0.0
-0.5494,0.215,0.3274,0.0,0.0
-0.2333,0.005,0.2779,0.0,0.0
-0.101,-0.005,-0.5939,0.0,0.0
0.2138,-0.005,-0.1769,1.1491459627329195,0.1154974639094811
-0.5186,0.205,-0.1577,0.0,0.0
-0.1061,0.005,-0.2843,0.0,0.0
-0.109,-0.215,-0.2189,0.0,0.0
0.2126,0.005,-0.5731,0.0,0.0
-0.4068,0.005,0.2576,0.20706521739130437,0.020811548966055405
0.3796,0.215,-0.3856,0.0,0.0
-0.5727,0.005,-0.4188,0.0,0.0
0.4021,0.205,-0.1691,0.0,0.0
-0.4305,0.005,-0.3751,0.0,0.0
0.1187,-0.205,0.1707,0.1888975155279503,0.018985563792430743
-0.0719,0.005,0.1114,2.75916149068323,0.2773156457276629
0.2563,-0.1944,-0.1525,0.0,0.0
-0.2029,0.166,-0.0841,0.0,0.0
-0.2029,0.0511,0.2531,7.26389751552795,0.7300741318767069
0.4274,0.0154,-0.2329,0.0,0.0
-0.0335,-0.215,-0.4895,0.0,0.0
-0.2649,-0.005,-0.5425,0.0,0.0
0.2563,-0.0547,-0.0696,0.5237577639751553,0.05264143581740148
0.2185,-0.215,-0.5762,0.0,0.0
-0.5212,-0.005,-0.3424,0.0,0.0
0.0922,-0.005,-0.1092,0.4668478260869565,0.04692157627779945
-0.4135,-0.215,-0.5949,0.0,0.0
0.1381,-0.205,-0.1379,0.0,0.0
0.4274,0.169,-0.3462,0.0,0.0
-0.5715,0.205,0.0834,0.0,0.0
0.4529,0.205,-0.131,0.0,0.0
-0.0273,0.0016,-0.6046,0.0,0.0
0.2627,0.005,0.1575,3.8059782608695647,0.3825282871634802
0.3908,0.205,-0.5342,0.0,0.0
0.115,-0.005,-0.2277,0.0,0.0
-0.3949,0.205,-0.1008,0.0,0.0
0.2577,-0.215,-0.2624,0.0,0.0
-0.5837,0.0187,0.5143,1.3858695652173914,0.1392898946547015
-0.4253,0.205,0.191,0.0,0.0
-0.2016,0.215,-0.5083,0.0,0.0
0.2703,-0.205,-0.3894,0.0,0.0
-0.5837,0.1539,-0.2511,0.0,0.0
-0.3095,0.215,0.5682,0.0,0.0
-0.0229,-0.215,-0.2206,0.0,0.0
-0.18,0.215,0.3787,0.0,0.0
-0.4745,0.005,0.0805,0.0,0.0
-0.1193,-0.205,0.1141,0.0,0.0
0.38,0.205,-0.2902,0.0,0.0
0.1657,0.005,-0.0649,0.0,0.0
-0.1961,0.005,-0.466,0.0,0.0
-0.5022,0.005,0.3935,0.39736024844720497,0.039937573156457275
-0.2983,0.205,0.1885,0.0,0.0
0.4274,0.1445,-0.3383,1.783928571428571,0.1792976980101443
-0.2607,-0.005,0.5079,0.0,0.0
-0.1414,0.215,-0.3708,0.0,0.0
0.2236,0.005,-0.1695,0.6093167701863353,0.061240733515411615
-0.3076,0.005,0.153,0.0,0.0
-0.3821,0.215,0.0239,0.0,0.0
0.1323,0.005,-0.186,0.5230590062111802,0.05257120561841592
-0.0335,0.1867,-0.6046,0.0,0.0
-0.0481,0.0018,-0.6046,0.0,0.0
-0.2316,0.215,-0.5595,0.0,0.0
-0.1337,0.005,-0.0277,0.0,0.0
0.1287,0.205,-0.3225,0.0,0.0
-0.5837,0.0882,0.4482,0.6676242236024845,0.06710105345298478
-0.3143,0.215,-0.4304,0.0,0.0
-0.1639,0.205,-0.5102,0.0,0.0
-0.1259,-0.205,-0.3058,0.0,0.0
-0.2029,0.1715,0.1456,0.0,0.0
-0.5624,0.205,-0.2228,0.0,0.0
-0.2357,-0.205,-0.5903,0.0,0.0
0.3163,-0.2066,-0.5026,0.0,0.0
-0.5684,-0.215,-0.4258,0.0,0.0
-0.4561,-0.005,-0.2725,0.0,0.0
-0.3802,0.005,-0.3665,0.0,0.0
-0.5271,0.005,-0.3009,0.0,0.0
-0.4569,-0.005,-0.1728,0.0,0.0
-0.1072,-0.0387,0.1688,1.6791925465838509,0.1687709715177526
-0.5113,-0.005,0.0103,0.0,0.0
-0.1056,-0.205,-0.2438,0.0,0.0
-0.3168,0.205,-0.1152,0.0,0.0
-0.2226,-0.215,-0.4109,0.0,0.0
0.0806,0.1677,-0.2021,0.0,0.0
-0.5289,-0.205,-0.5466,0.0,0.0
-0.3596,-0.162,-0.2161,0.0,0.0
-0.1594,0.005,0.3203,0.33625776397515533,0.03379633242294187
-0.2694,0.215,0.4638,0.0,0.0
0.1339,-0.005,-0.5234,0.0,0.0
-0.256,0.005,-0.4467,0.0,0.0
-0.3889,-0.005,-0.1255,0.5237577639751553,0.05264143581740148
-0.4883,0.005,-0.0145,0.0,0.0
0.1249,0.215,-0.329,0.0,0.0
0.2212,0.005,-0.1346,0.5701863354037267,0.057307842372220044
0.2563,-0.0738,-0.312,0.0,0.0
-0.5837,-0.0443,-0.5253,0.0,0.0
-0.4356,0.205,-0.5735,0.0,0.0
0.0208,-0.1086,-0.6046,0.0,0.0
0.3163,-0.2069,-0.2009,0.0,0.0
-0.3556,-0.005,-0.49,0.0,0.0
0.1152,-0.205,-0.4998,0.0,0.0
0.2563,-0.0134,-0.1586,0.0,0.0
0.3438,0.005,-0.5158,0.0,0.0
-0.0796,0.0677,-0.6046,0.0,0.0
0.017,0.0532,-0.2017,0.38128881987577645,0.038322278579789315
0.1155,0.215,-0.1964,0.0,0.0
-0.1762,-0.215,-0.466,0.0,0.0
0.235,0.005,-0.3089,0.0,0.0
-0.3871,0.005,-0.5819,0.0,0.0
-0.3153,0.205,0.5717,0.0,0.0
0.067,-0.005,-0.3221,0.0,0.0
-0.195,0.005,0.5743,0.0,0.0
-0.0899,-0.005,-0.1828,0.4605590062111802,0.04628950448692938
-0.0781,0.215,-0.1352,0.0,0.0
-0.1725,-0.215,-0.3085,0.0,0.0
-0.2989,0.005,0.4916,0.0,0.0
-0.4479,-0.005,-0.5993,0.0,0.0
0.4749,0.205,-0.3623,0.0,0.0
0.2212,-0.005,-0.2726,0.0,0.0
-0.1654,-0.205,-0.3408,0.0,0.0
-0.4984,0.005,-0.5622,0.0,0.0
0.2517,-0.005,-0.3653,0.0,0.0
-0.577,0.205,-0.4222,0.0,0.0
0.2341,0.205,-0.5639,0.0,0.0
-0.5349,-0.005,-0.2802,0.0,0.0
0.0008,-0.005,-0.1868,0.23082298136645962,0.02319937573156457
-0.3975,0.215,-0.3109,0.0,0.0
-0.5388,0.031,-0.6046,0.0,0.0
-0.4712,0.215,0.1041,0.0,0.0
0.0814,-0.005,-0.3134,0.0,0.0
0.0409,-0.005,-0.5031,0.0,0.0
-0.0381,-0.1052,0.1788,3.3925465838509323,0.3409754194303551
-0.2105,0.205,0.0948,0.0,0.0
0.2563,-0.1324,-0.2127,0.0,0.0
-0.344,0.215,-0.1759,0.0,0.0
-0.1804,-0.005,-0.299,0.0,0.0
0.1431,-0.1879,-0.6046,0.0,0.0
0.2258,0.005,-0.0565,0.0,0.0
-0.2755,0.1885,-0.6046,0.0,0.0
-0.411,0.005,-0.0138,0.0,0.0
0.4122,0.205,-0.3595,0.0,0.0
-0.3083,0.005,-0.4856,0.0,0.0
-0.125,-0.005,-0.5966,0.0,0.0
-0.3184,0.034,-0.6046,0.0,0.0
0.0878,-0.205,0.0375,0.0,0.0
-0.4463,-0.005,0.347,0.0,0.0
-0.5784,0.005,-0.5037,0.0,0.0
0.5124,0.205,-0.1839,0.0,0.0
-0.3368,0.1534,0.4557,0.5202639751552796,0.052290284822473665
-0.5837,0.2035,-0.4061,0.0,0.0
0.3272,-0.005,-0.3596,0.0,0.0
-0.2029,0.1753,0.087,0.0,0.0
-0.4643,-0.005,-0.3551,0.0,0.0
-0.0099,-0.005,-0.3363,0.0,0.0
-0.4263,0.205,0.0372,0.0,0.0
-0.295,-0.005,0.0973,0.0,0.0
-0.4815,0.205,0.0719,0.0,0.0
-0.3004,0.005,-0.3496,0.0,0.0
-0.234,0.205,0.3629,0.0,0.0
0.034,-0.0786,-0.6046,0.0,0.0
-0.0217,-0.205,-0.1932,0.0,0.0
0.2563,-0.0579,-0.3904,0.0,0.0
-0.1294,0.182,-0.6046,0.0,0.0
-0.014,0.005,-0.3717,0.0,0.0
0.2201,-0.005,-0.2211,0.0,0.0
-0.4894,0.205,0.4298,0.0,0.0
-0.3183,-0.005,-0.4708,0.0,0.0
0.141,0.205,-0.119,0.0,0.0
-0.2741,-0.215,-0.4023,0.0,0.0
-0.5095,-0.205,-0.5302,0.0,0.0
-0.1322,0.215,0.0659,0.0,0.0
-0.0316,0.0797,-0.6046,0.0,0.0
0.2612,0.005,-0.2561,0.0,0.0
-0.1278,0.005,-0.4314,0.0,0.0
-0.1526,0.005,0.5674,0.46475155279503105,0.04671088568084276
-0.5837,0.1811,-0.5151,0.0,0.0
-0.4036,-0.215,-0.2553,0.0,0.0
0.2833,0.005,-0.6001,0.0,0.0
-0.2498,0.215,0.2083,0.0,0.0
0.2992,-0.215,-0.4858,0.0,0.0
-0.3831,-0.2123,-0.2068,0.0,0.0
-0.4122,-0.005,-0.4726,0.0,0.0
-0.3239,-0.005,0.4063,0.0,0.0
-0.5837,0.139,-0.138,0.0,0.0
-0.0392,0.005,-0.3415,0.0,0.0
-0.5718,0.005,-0.1714,0.0,0.0
-0.2004,0.215,0.1935,0.0,0.0
0.2767,0.215,-0.2442,0.0,0.0
0.2449,0.005,-0.081,0.0,0.0
0.061,-0.205,-0.3299,0.0,0.0
-0.5495,0.215,0.3142,0.0,0.0
-0.4501,-0.005,-0.417,0.0,0.0
0.1287,0.005,0.0296,0.7259316770186335,0.07296137339055793
0.0939,-0.005,-0.2861,0.0,0.0
-0.1478,0.205,-0.3515,0.0,0.0
-0.0633,-0.0723,0.0025,0.2049689440993789,0.020600858369098713
0.0697,0.0419,-0.2021,2.1770962732919252,0.21881388997268822
-0.5825,-0.215,-0.2673,0.0,0.0
-0.5837,0.1451,-0.268,0.0,0.0
-0.2943,-0.005,-0.2766,0.0,0.0
-0.212,-0.215,-0.4737,0.0,0.0
0.1477,0.005,-0.1951,1.2475931677018635,0.12539211861100275
-0.1854,0.005,0.1175,2.6565217391304348,0.2669996098322278
-0.5837,-0.1233,-0.4107,0.0,0.0
0.1047,0.005,-0.2834,0.0,0.0
0.4274,0.1712,-0.3457,0.0,0.0
-0.5837,0.1598,-0.1673,0.0,0.0
0.411,0.2147,-0.6046,0.0,0.0
0.0378,-0.0524,0.0025,0.0,0.0
-0.5702,0.005,0.3718,0.0,0.0
0.0758,0.0513,-0.2021,0.8530279503105591,0.08573546625048771
-0.5506,0.005,-0.3921,0.0,0.0
0.2633,0.005,-0.2728,0.0,0.0
0.1461,-0.005,-0.2389,0.0,0.0
0.0418,0.005,-0.0762,0.18959627329192547,0.019055793991416308
-0.5371,-0.0632,-0.6046,0.0,0.0
-0.3941,-0.005,-0.3263,0.0,0.0
-0.4228,0.005,-0.2122,0.0,0.0
-0.4083,0.2056,0.2315,0.0,0.0
-0.2131,-0.1543,-0.6046,0.0,0.0
0.1068,0.1813,-0.2023,0.0,0.0
0.2978,-0.0029,-0.6046,0.0,0.0
-0.4754,0.205,0.2289,0.0,0.0
-0.4055,-0.005,-0.3359,0.0,0.0
-0.1223,-0.087,0.1788,0.0,0.0
0.004,0.215,-0.4754,0.0,0.0
0.4215,0.1547,-0.2046,0.0,0.0
0.0255,-0.1141,0.1688,1.71304347826087,0.17217323449083108
0.4274,0.1911,-0.4697,0.0,0.0
0.1215,-0.005,-0.2162,0.0,0.0
-0.0692,-0.205,-0.1012,0.0,0.0
0.3163,-0.0029,-0.4265,0.0,0.0
-0.5837,0.1571,-0.588,0.0,0.0
-0.559,0.215,-0.5748,0.0,0.0
0.1032,0.1082,-0.6046,0.0,0.0
0.1887,-0.005,-0.1522,0.33206521739130435,0.03337495122902848
-0.3602,0.005,-0.4289,0.0,0.0
0.1857,0.005,-0.0735,0.19309006211180127,0.01940694498634413
0.1167,0.215,-0.2675,0.0,0.0
0.4274,0.0425,-0.5762,0.0,0.0
-0.5197,-0.215,-0.3778,0.0,0.0
-0.1159,-0.005,-0.096,0.9801242236024845,0.09850955911041748
0.3163,-0.2011,0.1725,0.0,0.0
-0.4811,0.215,-0.4356,0.0,0.0
-0.1329,-0.005,-0.0002,0.0,0.0
-0.4003,0.205,0.2688,0.0,0.0
0.2316,0.215,-0.4896,0.0,0.0
-0.5621,-0.215,-0.0029,0.3565217391304348,0.03583300819352321
-0.0627,0.005,-0.5497,0.0,0.0
-0.19,-0.005,0.3753,0.0,0.0
0.4274,0.065,-0.2328,0.20776397515527953,0.02088177916504097
-0.481,0.005,-0.1103,0.0,0.0
-0.0384,0.205,-0.3187,0.0,0.0
0.1025,-0.1868,0.0025,0.0,0.0
-0.2349,-0.005,-0.0549,0.0,0.0
-0.2867,-0.005,-0.3894,0.0,0.0
-0.4726,0.005,-0.2795,0.0,0.0
-0.3374,0.205,-0.2568,0.0,0.0
0.2441,-0.205,-0.4071,0.0,0.0
-0.2875,0.0712,0.4557,0.5237577639751553,0.05264143581740148
-0.1767,-0.041,-0.2161,0.19029503105590062,0.019126024190401873
0.1623,-0.215,-0.5387,0.0,0.0
-0.1446,0.205,0.1982,1.7193322981366461,0.17280530628170113
-0.0593,-0.205,-0.2442,0.0,0.0
0.0899,-0.205,-0.0182,0.0,0.0
-0.1576,0.205,-0.1651,0.0,0.0
-0.5729,-0.005,0.4389,0.0,0.0
-0.2542,0.005,-0.3308,0.0,0.0
-0.1521,0.205,0.2247,0.0,0.0
0.1,-0.0818,-0.6046,0.0,0.0
-0.1676,-0.0301,-0.6046,0.0,0.0
-0.2559,-0.005,0.5264,0.0,0.0
-0.2068,-0.215,-0.5033,0.0,0.0
-0.2665,0.215,0.4127,0.0,0.0
-0.4715,0.0696,-0.6046,0.0,0.0
-0.5837,-0.0157,-0.4727,0.0,0.0
-0.5837,0.1477,-0.4493,0.0,0.0
0.5382,0.205,-0.2117,0.0,0.0
-0.0986,-0.215,-0.2135,0.0,0.0
0.2229,0.005,-0.5436,0.0,0.0
-0.1622,0.205,-0.1072,0.0,0.0
0.2292,0.215,-0.342,0.0,0.0
0.2639,0.215,-0.1634,0.0,0.0
0.0326,-0.215,0.1271,0.0,0.0
0.2926,0.215,-0.1248,0.0,0.0
0.0006,-0.0575,0.0025,0.0,0.0
-0.2234,-0.005,0.5134,0.0,0.0
-0.5547,0.005,0.2053,0.0,0.0
-0.5413,-0.205,-0.5958,0.0,0.0
0.4274,0.0482,-0.5088,0.0,0.0
0.11,0.215,-0.2087,0.0,0.0
-0.481,-0.005,-0.2716,0.0,0.0
-0.4243,-0.1167,-0.2161,0.0,0.0
0.1262,0.005,-0.3656,0.0,0.0
0.1843,0.005,-0.5518,0.0,0.0
0.1007,-0.005,-0.1631,0.5251552795031056,0.0527818962153726
-0.0871,-0.205,-0.1073,0.0,0.0
-0.4195,0.005,-0.1071,0.0,0.0
-0.5727,-0.005,0.3244,0.0,0.0
-0.1255,0.005,-0.3473,0.0,0.0
0.2515,0.215,-0.3967,0.0,0.0
-0.5443,-0.1378,-0.6046,0.0,0.0
-0.2624,0.005,-0.5375,0.0,0.0
-0.5837,0.0835,-0.2536,0.0,0.0
-0.517,-0.005,0.2666,0.0,0.0
-0.311,-0.005,0.4054,0.0,0.0
-0.4487,0.046,0.4557,1.1892857142857143,0.11953179867342957
-0.1626,-0.215,-0.5054,0.0,0.0
-0.1159,-0.005,-0.5583,0.0,0.0
-0.2944,0.205,-0.1929,0.0,0.0
-0.559,-0.1994,-0.2161,0.0,0.0
0.0057,-0.0619,-0.6046,0.0,0.0
-0.0061,-0.0081,0.1688,2.643944099378882,0.26573546625048766
-0.5837,0.1198,-0.5923,0.0,0.0
-0.4146,0.005,-0.391,0.0,0.0
-0.4256,-0.005,-0.307,0.0,0.0
-0.2029,0.183,0.1173,0.0,0.0
0.3013,0.005,-0.2162,0.1888975155279503,0.018985563792430743
-0.449,-0.0932,-0.6046,0.0,0.0
0.258,-0.205,0.0125,0.0,0.0
-0.1356,0.215,-0.5291,0.0,0.0
-0.2029,0.1346,0.4186,0.0,0.0
0.2563,-0.0276,-0.211,0.0,0.0
0.257,0.005,0.057,3.7246118012422365,0.37435037065938354
-0.294,0.005,-0.4932,0.0,0.0
0.0998,-0.205,-0.2655,0.0,0.0
-0.4195,-0.215,-0.2275,0.714052795031056,0.07176746000780336
-0.4272,0.205,0.0764,0.0,0.0
-0.2198,0.205,0.391,0.0,0.0
-0.237,0.215,0.5346,0.0,0.0
0.3625,0.136,-0.2042,0.4605590062111802,0.04628950448692938
-0.038,-0.215,0.0736,0.0,0.0
-0.5837,-0.0602,-0.4923,0.0,0.0
-0.4907,0.205,0.0268,0.0,0.0
-0.4904,-0.0442,-0.2161,0.0,0.0
0.3907,0.005,-0.4867,0.0,0.0
-0.1233,0.215,0.2995,0.0,0.0
0.0052,-0.205,0.1784,0.349611801242236,0.035138509559110416
-0.153,0.005,-0.5178,0.0,0.0
0.274,0.215,-0.3207,0.0,0.0
-0.1022,-0.215,-0.3469,0.0,0.0
-0.1942,-0.215,-0.6043,0.0,0.0
-0.2029,0.037,0.4272,0.35372670807453416,0.03555208739758096
0.2769,-0.205,-0.4076,0.0,0.0
-0.4897,0.215,-0.3996,0.0,0.0
-0.3328,-0.005,0.3878,0.0,0.0
-0.0455,0.005,-0.3341,0.0,0.0
-0.2335,0.215,0.1597,0.0,0.0
0.3148,-0.205,-0.2404,0.0,0.0
-0.3591,0.005,0.1926,0.0,0.0
-0.1097,-0.205,0.1551,0.33695652173913043,0.03386656262192743
0.0879,-0.005,-0.5177,0.0,0.0
0.0843,-0.0439,0.0025,0.0,0.0
0.1501,-0.005,-0.5636,0.0,0.0
0.0541,-0.215,0.0032,0.0,0.0
-0.0039,-0.215,-0.1657,0.0,0.0
0.115,0.215,-0.4975,0.0,0.0
-0.579,-0.005,0.158,0.6711180124223602,0.0674522044479126
0.1181,-0.005,-0.5394,0.0,0.0
0.3399,0.1787,-0.6046,0.0,0.0
0.0056,-0.1855,0.0025,1.7444875776397517,0.17533359344518143
0.221,-0.005,-0.3108,0.0,0.0
-0.3802,0.205,-0.5767,0.0,0.0
-0.0836,0.2122,-0.0167,0.22872670807453419,0.022988685134607882
0.21,-0.005,-0.4334,0.0,0.0
-0.5837,-0.1735,-0.4934,0.0,0.0
-0.2623,0.215,0.2444,0.0,0.0
0.1588,0.215,-0.3834,0.0,0.0
-0.157,0.215,0.3743,0.0,0.0
-0.5272,0.215,-0.5102,0.0,0.0
-0.498,-0.005,0.533,0.0,0.0
0.2287,0.0428,-0.6046,0.0,0.0
-0.3783,0.205,0.3796,0.0,0.0
-0.5815,0.205,-0.2287,0.0,0.0
-0.5837,0.009,-0.4816,0.0,0.0
0.5321,0.215,-0.5064,0.0,0.0
-0.4984,0.215,-0.3333,0.0,0.0
-0.5456,0.215,-0.2667,0.0,0.0
-0.3644,0.215,0.5463,0.0,0.0
-0.4449,0.005,-0.6004,0.0,0.0
-0.3664,0.215,-0.5291,0.0,0.0
-0.1858,0.215,-0.5566,0.0,0.0
0.1585,-0.1342,0.1788,0.1888975155279503,0.018985563792430743
0.0815,-0.205,-0.5401,0.0,0.0
-0.0683,0.215,-0.5413,0.0,0.0
0.2412,-0.005,-0.5547,0.0,0.0
-0.2411,-0.005,0.4376,0.0,0.0
0.1288,0.205,-0.2576,0.0,0.0
0.251,0.215,-0.2949,0.0,0.0
-0.3934,0.205,0.3962,0.0,0.0
-0.0693,0.005,-0.1444,0.19518633540372674,0.019617635583300822
-0.4948,0.005,-0.1592,0.0,0.0
-0.3689,0.215,-0.2085,0.0,0.0
-0.5737,0.0991,0.5008,0.35722049689441,0.03590323839250878
-0.5837,0.1696,-0.2299,0.0,0.0
-0.2602,0.0182,-0.6046,0.0,0.0
0.0232,-0.005,-0.5053,0.0,0.0
-0.2029,0.0593,0.4163,0.19099378881987578,0.019196254389387435
-0.2344,0.215,-0.3992,0.0,0.0
-0.4223,0.005,0.3568,0.0,0.0
-0.2956,-0.005,-0.3031,0.0,0.0
-0.2218,0.005,-0.6039,0.0,0.0
0.3347,0.205,-0.1946,0.0,0.0
0.2015,0.205,-0.533,0.0,0.0
0.3162,-0.205,-0.4056,0.0,0.0
-0.5837,-0.0429,-0.3674,0.0,0.0
-0.5197,0.205,0.1244,0.0,0.0
-0.5837,0.1149,0.1479,0.0,0.0
-0.169,0.005,-0.0281,0.3917701863354037,0.03937573156457276
-0.2765,0.215,0.4572,0.0,0.0
-0.4579,-0.0681,-0.2161,0.0,0.0
-0.381,-0.205,-0.5142,0.0,0.0
-0.2835,0.215,-0.2473,0.0,0.0
-0.0977,0.005,-0.0967,1.4399844720496895,0.1447288333983613
0.2661,0.005,-0.1815,1.5073757763975155,0.15150214592274677
-0.0578,-0.2022,0.1688,0.0,0.0
-0.1056,0.005,-0.1744,0.9197204968944099,0.09243854857588762
0.2984,-0.005,-0.0264,0.3987577639751553,0.040078033554428405
-0.3059,-0.005,0.3532,0.0,0.0
-0.2986,0.203,0.4557,0.0,0.0
-0.2575,0.215,-0.5715,0.0,0.0
-0.0719,0.0309,-0.6046,0.0,0.0
0.3972,0.205,-0.3411,0.0,0.0
0.2563,-0.0893,-0.0514,0.0,0.0
-0.0607,0.005,-0.5912,0.0,0.0
0.0158,-0.005,-0.581,0.0,0.0
-0.1264,0.1057,-0.2007,4.2902950310559005,0.4312056184159188
0.2563,-0.0585,-0.2518,0.33486024844720497,0.03365587202497074
-0.2146,0.215,0.3748,0.0,0.0
0.0987,-0.205,0.1535,0.0,0.0
-0.3508,-0.205,-0.561,0.0,0.0
-0.2199,0.1707,-0.6046,0.0,0.0
-0.1337,-0.1455,0.1748,0.6002329192546585,0.060327740928599306
-0.1845,-0.215,-0.5769,0.0,0.0
-0.3006,0.005,-0.4346,0.0,0.0
-0.1337,-0.1627,-0.0126,1.0461180124223604,0.10514241123683184
-0.0377,-0.1142,0.1788,1.2538819875776397,0.1260241904018728
0.5017,0.215,-0.5518,0.0,0.0
-0.3178,0.215,0.2725,0.0,0.0
0.2844,0.215,-0.4792,0.0,0.0
-0.0919,0.205,0.0221,0.0,0.0
-0.4719,-0.005,0.3305,0.0,0.0
-0.5837,0.1199,-0.368,0.0,0.0
-0.4138,-0.005,0.5312,0.0,0.0
-0.5784,-0.005,-0.155,0.3376552795031056,0.03393679282091299
0.1463,-0.205,-0.4325,0.0,0.0
-0.2016,-0.005,0.5188,0.1888975155279503,0.018985563792430743
0.1918,-0.005,-0.2025,0.0,0.0
0.0236,0.005,-0.572,0.0,0.0
-0.2385,0.215,0.0842,0.0,0.0
-0.4862,-0.005,0.5334,0.0,0.0
-0.4454,0.005,-0.2012,0.0,0.0
0.1155,-0.005,-0.3501,0.0,0.0
0.2198,-0.215,-0.2935,0.0,0.0
-0.3933,0.215,0.2957,0.0,0.0
0.5622,0.205,-0.5166,0.0,0.0
-0.0982,-0.005,-0.5293,0.0,0.0
0.3468,0.1787,-0.6046,0.0,0.0
0.0096,0.005,-0.3375,0.0,0.0
-0.443,0.005,-0.3014,0.0,0.0
0.2563,-0.0844,-0.2672,0.19309006211180127,0.01940694498634413
-0.1963,0.205,0.1101,0.0,0.0
0.5238,0.205,-0.1491,0.0,0.0
0.0537,0.0431,-0.202,2.386257763975155,0.23983612953570033
-0.0977,-0.005,0.1442,0.3334627329192547,0.033515411626999614
-0.228,0.005,-0.3366,0.0,0.0
0.0727,-0.205,-0.5729,0.0,0.0
-0.4113,0.005,0.2524,0.0,0.0
0.3129,-0.2092,0.1788,0.0,0.0
-0.1968,0.005,-0.4876,0.0,0.0
-0.1337,-0.1427,0.1727,0.6002329192546585,0.060327740928599306
-0.1563,0.005,0.0417,0.0,0.0
-0.5615,0.215,0.3762,0.0,0.0
-0.2744,-0.1721,-0.2161,0.0,0.0
-0.1429,0.205,0.5729,0.0,0.0
-0.4192,0.205,-0.329,0.0,0.0
-0.109,-0.005,-0.1046,0.0,0.0
-0.2006,-0.1318,-0.2161,0.0,0.0
-0.0256,0.0475,-0.2014,0.0,0.0
-0.3401,0.205,0.548,0.0,0.0
-0.0741,-0.005,-0.1452,0.0,0.0
-0.0246,0.205,-0.5111,0.0,0.0
-0.4528,-0.005,-0.5507,0.0,0.0
0.3275,0.205,-0.316,0.0,0.0
-0.253,0.005,-0.0044,0.0,0.0
-0.1123,0.0223,-0.2008,1.8380434782608697,0.18473663675380414
-0.3274,0.215,0.2269,0.0,0.0
-0.2982,0.215,0.5213,0.0,0.0
0.4274,0.028,-0.3245,0.0,0.0
-0.2859,0.1299,-0.6046,0.0,0.0
-0.3101,0.215,-0.5588,0.0,0.0
0.0582,0.005,-0.5857,0.0,0.0
0.4683,0.215,-0.131,0.0,0.0
-0.57,-0.005,-0.3405,0.0,0.0
-0.219,-0.005,0.0903,0.0,0.0
-0.4173,0.205,0.1892,0.0,0.0
0.2662,-0.0027,-0.2035,0.38059006211180124,0.038252048380803746
0.0524,-0.005,-0.4414,0.0,0.0
-0.1651,0.1588,-0.2004,0.0,0.0
0.3228,0.215,-0.5797,0.0,0.0
0.0023,-0.215,-0.4013,0.0,0.0
0.2854,0.005,-0.5176,0.0,0.0
-0.0091,-0.215,-0.5255,0.0,0.0
-0.1337,-0.0417,-0.2053,0.0,0.0
-0.5837,-0.0533,-0.4917,0.0,0.0
-0.0494,0.205,-0.4779,0.0,0.0
-0.2102,-0.215,-0.2766,0.0,0.0
0.4148,0.215,-0.5303,0.0,0.0
-0.4522,-0.005,-0.4867,0.0,0.0
0.006,0.005,-0.5959,0.0,0.0
-0.4179,0.005,0.5575,0.0,0.0
0.0882,-0.205,-0.0898,0.0,0.0
-0.5837,0.2046,-0.1715,0.0,0.0
-0.1782,0.005,-0.5207,0.0,0.0
-0.2306,-0.215,-0.5751,0.0,0.0
0.2296,-0.005,-0.0378,0.0,0.0
0.0969,-0.005,-0.4313,0.0,0.0
-0.3269,0.205,0.3054,0.0,0.0
-0.5832,-0.215,-0.5087,0.0,0.0
0.29,0.215,-0.3762,0.0,0.0
-0.5737,0.0204,0.55,0.920419254658385,0.09250877877487318
0.3158,-0.205,-0.2285,0.0,0.0
-0.1864,0.205,0.0937,0.0,0.0
-0.1845,0.215,-0.365,0.0,0.0
-0.3522,-0.215,-0.5491,0.0,0.0
-0.4338,0.215,0.1562,0.0,0.0
0.1451,0.1255,-0.6046,0.0,0.0
-0.0346,-0.215,-0.3566,0.0,0.0
-0.5149,-0.005,-0.4223,0.0,0.0
-0.416,-0.005,-0.2899,0.0,0.0
-0.1337,-0.0004,-0.2804,0.0,0.0
0.3906,0.215,-0.2407,0.0,0.0
0.1532,-0.1236,0.1788,0.1888975155279503,0.018985563792430743
-0.3822,-0.215,-0.4965,0.0,0.0
0.4274,0.036,-0.5629,0.0,0.0
0.2953,0.0633,-0.6046,0.0,0.0
-0.4362,0.215,0.4611,0.0,0.0
0.0009,-0.0677,0.1788,3.265450310559006,0.3282013265704252
-0.2662,0.215,0.2029,0.0,0.0
0.4274,0.0395,-0.435,0.0,0.0
0.2563,-0.1835,-0.1009,0.0,0.0
-0.0901,-0.215,-0.2338,0.0,0.0
-0.3161,0.215,0.0948,0.0,0.0
0.2743,-0.0986,0.1688,0.7975155279503106,0.08015606710885681
-0.1337,-0.0207,-0.1611,0.0,0.0
-0.0547,-0.005,-0.5686,0.0,0.0
-0.4943,0.205,-0.5507,0.0,0.0
-0.4786,-0.005,-0.2231,0.0,0.0
-0.4505,0.205,0.3379,0.0,0.0
0.2768,-0.005,-0.1673,0.5237577639751553,0.05264143581740148
-0.0276,0.005,-0.2747,0.0,0.0
-0.0887,-0.005,-0.2625,0.0,0.0
0.184,0.205,-0.1722,0.0,0.0
-0.2519,0.005,-0.0722,0.0,0.0
-0.3275,-0.005,0.0679,0.0,0.0
0.1148,0.215,-0.3581,0.0,0.0
-0.3554,0.205,0.3071,0.0,0.0
-0.4957,0.005,-0.2439,0.0,0.0
-0.2934,0.205,0.6016,0.0,0.0
-0.0601,-0.205,0.0983,0.0,0.0
-0.5267,-0.005,0.1332,0.0,0.0
-0.5779,0.005,0.1736,0.0,0.0
-0.3887,-0.005,-0.4712,0.0,0.0
0.141,0.005,-0.5339,0.0,0.0
0.2817,-0.005,-0.5168,0.0,0.0
0.1174,0.005,-0.2755,0.0,0.0
-0.0706,-0.205,-0.4807,0.0,0.0
-0.0089,-0.215,0.114,0.0,0.0
-0.5837,-0.0921,-0.2999,0.0,0.0
0.246,0.215,-0.3718,0.0,0.0
-0.2565,0.215,-0.2024,0.0,0.0
-0.5837,0.1747,-0.3648,0.0,0.0
0.419,-0.005,-0.3484,0.0,0.0
0.0604,0.005,-0.4847,0.0,0.0
-0.4784,-0.005,-0.5102,0.0,0.0
-0.1889,0.205,0.4737,0.0,0.0
0.2668,0.005,0.0619,3.0105590062111807,0.3025829106515802
0.0664,0.215,-0.5962,0.0,0.0
0.4062,0.1862,-0.2045,0.0,0.0
-0.5737,0.0224,0.4933,0.7828416149068324,0.07868123293015997
0.1002,0.005,-0.5784,0.0,0.0
-0.0427,-0.215,0.1331,0.0,0.0
-0.1956,-0.005,-0.3553,0.0,0.0
-0.5662,0.215,0.2177,0.0,0.0
-0.4885,-0.005,0.6026,0.33206521739130435,0.03337495122902848
0.2411,-0.215,0.1543,0.0,0.0
0.2674,0.005,0.1456,1.9302018633540372,0.19399921966445569
-0.1842,-0.005,-0.49,0.0,0.0
-0.1748,0.215,-0.2914,0.0,0.0
-0.0702,0.215,-0.1148,0.0,0.0
-0.5618,0.205,0.5493,0.0,0.0
-0.101,-0.005,-0.2851,0.0,0.0
-0.5414,0.005,-0.2659,0.0,0.0
-0.4084,0.205,0.2972,0.0,0.0
0.2563,-0.202,-0.0511,0.0,0.0
-0.2868,0.205,-0.1643,0.0,0.0
-0.4001,-0.005,-0.3689,0.0,0.0
-0.1982,-0.205,-0.3138,0.0,0.0
-0.3164,0.2092,0.3846,0.0,0.0
0.2885,0.1091,-0.2036,0.20846273291925466,0.02095200936402653
0.2879,0.005,-0.5162,0.0,0.0
-0.1693,-0.205,-0.5081,0.0,0.0
-0.2129,-0.005,-0.1327,0.0,0.0
-0.5694,-0.005,-0.3857,0.0,0.0
0.5056,0.205,-0.2879,0.0,0.0
0.3731,-0.005,-0.3088,0.0,0.0
-0.1337,-0.156,-0.0122,1.0461180124223604,0.10514241123683184
-0.0613,-0.005,-0.4958,0.0,0.0
-0.5061,-0.0338,-0.6046,0.0,0.0
-0.5542,-0.1139,-0.6046,0.0,0.0
-0.5632,0.005,-0.5416,0.0,0.0
0.1631,0.205,-0.3726,0.0,0.0
0.2414,-0.17,0.1688,0.0,0.0
0.2414,0.005,-0.2563,0.0,0.0
0.1474,-0.1223,-0.6046,0.0,0.0
-0.4795,-0.005,-0.296,0.0,0.0
-0.0224,-0.005,-0.4595,0.0,0.0
-0.5177,-0.005,0.0576,0.5230590062111802,0.05257120561841592
0.0314,-0.205,-0.4239,0.0,0.0
-0.2932,0.0979,0.4557,0.6501552795031056,0.06534529847834568
0.24,-0.032,0.1788,0.3607142857142857,0.036254389387436595
-0.5837,0.0091,-0.5721,0.0,0.0
-0.0915,-0.205,-0.2811,0.0,0.0
-0.5068,-0.005,-0.321,0.0,0.0
-0.3028,0.005,-0.14,0.0,0.0
0.1452,0.205,-0.5992,0.0,0.0
0.1606,-0.205,-0.6027,0.0,0.0
0.2563,-0.1087,-0.4327,0.0,0.0
-0.0552,-0.205,-0.0113,0.0,0.0
-0.2029,0.0679,0.4377,0.0,0.0
-0.5153,0.205,0.0342,0.0,0.0
-0.2399,0.0653,-0.6046,0.0,0.0
0.0774,-0.205,0.0601,0.0,0.0
-0.124,0.205,-0.3466,0.0,0.0
-0.4798,-0.215,-0.369,0.0,0.0
-0.486,0.005,-0.2009,0.0,0.0
-0.1699,0.205,0.6029,0.0,0.0
-0.1082,0.005,-0.3892,0.0,0.0
-0.0132,-0.005,-0.0375,1.0656832298136645,0.1071088568084276
0.0851,-0.0599,0.0025,0.0,0.0
-0.1102,-0.005,-0.2138,0.0,0.0
-0.0243,-0.005,-0.5194,0.0,0.0
-0.5209,0.005,-0.5923,0.0,0.0
0.1909,0.005,-0.3254,0.0,0.0
-0.3804,-0.215,-0.3187,0.0,0.0
-0.1273,-0.005,-0.5134,0.0,0.0
