x,y,z,SaliencyScore,NormalizedScore
-0.0771,-0.3606,-0.6599,0.0,0.0
-0.7597,-0.4026,-0.2833,0.0,0.0
0.2373,-0.4026,-0.2804,0.0,0.0
0.5492,0.3663,-0.1526,0.0,0.0
0.5878,0.0586,-0.3864,0.0,0.0
0.6396,0.204,-0.4179,1.9392773502843763,0.11134802862219662
-0.24,0.0369,-0.0704,0.0,0.0
-0.3326,-0.1842,-0.6273,0.0,0.0
0.386,0.0369,-0.1463,0.0,0.0
-0.6202,-0.4026,0.454,0.0,0.0
-0.0914,-0.4026,-0.4488,0.0,0.0
0.7445,-0.3802,-0.4243,0.0,0.0
-0.2394,-0.1088,-0.7645,0.0,0.0
0.1561,0.1663,0.0177,2.1289729006356644,0.12223983095615425
-0.2686,-0.2473,-0.655,0.0,0.0
-0.2892,-0.2668,-0.0163,0.5560388089662095,0.03192623541276473
0.0583,-0.267,-0.7246,0.0,0.0
-0.3303,-0.0226,-0.3174,0.0,0.0
-0.7209,-0.4026,-0.2764,0.0,0.0
-0.2588,-0.1259,-0.2238,0.3752091000334561,0.021543485568842148
-0.1576,-0.0782,-0.5397,0.0,0.0
0.7243,-0.1644,-0.5577,0.0,0.0
-0.7892,-0.2755,0.6783,0.0,0.0
-0.0214,-0.0511,-0.8371,0.0,0.0
-0.3319,-0.4026,0.1382,0.0,0.0
-0.0401,-0.0373,-0.1199,0.0,0.0
-0.535,-0.1726,0.7174,0.0,0.0
-0.0132,0.0186,-0.3967,0.0,0.0
-0.4501,-0.1726,0.8197,0.0,0.0
0.293,0.0369,-0.1153,0.0,0.0
-0.592,-0.1121,-0.2411,0.0,0.0
0.2114,0.0096,-0.0648,0.0,0.0
-0.0559,0.3622,-0.2323,0.0,0.0
-0.0974,0.331,-0.2689,0.0,0.0
-0.5044,0.2219,-0.2307,0.0,0.0
-0.0573,0.0369,-0.2994,0.0,0.0
-0.0683,-0.4026,-0.1439,0.0,0.0
-0.5081,-0.1726,0.0049,0.613750418200067,0.03523987897997407
0.186,-0.2775,-0.6905,0.0,0.0
-0.4422,-0.3757,0.9091,0.0,0.0
-0.3162,-0.1726,0.5458,4.147875543660088,0.23815972722470347
0.5105,0.0434,-0.0251,0.0,0.0
0.2855,0.3266,-0.2741,0.0,0.0
-0.5,-0.4026,-0.2223,0.0,0.0
0.4294,0.0369,-0.067,0.0,0.0
0.7176,0.1097,0.0526,0.0,0.0
-0.3222,0.3807,-0.2107,0.0,0.0
-0.7732,-0.4026,-0.4968,0.0,0.0
-0.7476,-0.4026,-0.1115,0.0,0.0
0.4198,0.0316,-0.3741,0.0,0.0
0.2151,-0.0308,-0.1121,0.0,0.0
0.0328,0.161,0.0222,0.9722315155570427,0.055822888152523654
-0.0509,-0.2512,-0.7059,0.0,0.0
-0.5043,-0.0073,-0.3047,0.0,0.0
0.677,0.114,-0.4337,0.0,0.0
-0.1386,-0.1129,-0.2405,0.0,0.0
0.7867,0.0988,-0.1884,0.99163599866176,0.05693704077222303
-0.7017,-0.4026,0.8117,0.0,0.0
-0.7653,-0.4026,-0.1195,0.0,0.0
-0.2987,-0.1726,0.521,3.293241886918703,0.18908898813811656
-0.3708,-0.056,-0.1418,0.0,0.0
-0.1865,-0.0927,-0.2576,0.0,0.0
-0.1042,-0.0021,-0.5811,0.0,0.0
0.6141,0.2335,-0.3834,0.8619939779190366,0.049493348700955675
-0.3907,-0.4026,-0.3301,0.0,0.0
-0.192,-0.2877,-0.0914,0.2562730010036802,0.014714498391202037
-0.7891,-0.2998,-0.5645,0.0,0.0
-0.6304,-0.4026,-0.0365,0.0,0.0
0.0783,-0.4026,-0.0129,0.0,0.0
0.0588,-0.0167,-0.0957,0.0,0.0
0.3372,-0.1937,-0.5921,0.0,0.0
-0.0902,-0.0227,-0.3173,0.0,0.0
0.4932,-0.2555,-0.7109,0.0,0.0
-0.1918,-0.4026,-0.3413,0.0,0.0
0.2405,-0.2349,-0.6867,0.0,0.0
-0.0971,-0.4026,-0.2339,0.0,0.0
-0.5714,-0.1726,0.0169,0.0,0.0
-0.6243,-0.1726,0.7746,0.0,0.0
-0.1616,-0.1262,-0.697,0.0,0.0
0.354,-0.2343,-0.6861,0.0,0.0
-0.6227,-0.1726,0.2014,0.0,0.0
-0.2375,-0.022,-0.6851,0.0,0.0
-0.2892,-0.3862,0.8412,0.0,0.0
0.7445,-0.3836,-0.5459,0.0,0.0
-0.3044,-0.1211,-0.2334,0.0,0.0
-0.0683,-0.0497,-0.4695,0.0,0.0
0.2978,0.2502,-0.0537,0.0,0.0
-0.1508,-0.0362,-0.4799,0.0,0.0
-0.0231,-0.0809,-0.5061,0.0,0.0
-0.4878,-0.2026,0.4152,0.24188691870190704,0.013888488690390435
0.0379,-0.0267,-0.4663,0.0,0.0
-0.6631,-0.1726,0.6053,0.0,0.0
0.7446,-0.3498,-0.6546,3.4155235864837747,0.19611007059501515
-0.7892,-0.3277,0.3375,0.0,0.0
-0.0215,-0.2379,-0.6912,0.0,0.0
0.2509,-0.4026,-0.4966,0.0,0.0
-0.1107,-0.2045,-0.6511,0.0,0.0
-0.5111,-0.1726,0.5688,0.0,0.0
-0.2542,0.304,-0.3006,0.0,0.0
-0.0791,-0.0825,-0.5458,0.0,0.0
-0.1207,-0.1829,-0.8114,0.0,0.0
0.2019,0.0011,-0.3375,0.0,0.0
-0.244,-0.1089,-0.764,0.0,0.0
0.0018,0.025,-0.3818,0.0,0.0
0.5295,-0.0672,-0.4475,0.0,0.0
-0.7892,-0.3406,0.5263,0.0,0.0
0.1221,-0.4026,-0.5523,0.0,0.0
0.1912,0.2036,-0.0141,6.702408832385414,0.38483407770254047
0.5156,-0.066,-0.2803,0.0,0.0
-0.2981,-0.2026,0.2226,13.171127467380398,0.756250300148874
-0.6611,-0.1726,0.8295,0.0,0.0
0.5829,-0.375,-0.6477,0.0,0.0
0.496,0.0369,-0.1651,0.0,0.0
0.4629,-0.1639,-0.6034,0.0,0.0
-0.4705,-0.0465,-0.4657,0.0,0.0
-0.3228,-0.3393,0.9091,0.0,0.0
-0.08,-0.0434,-0.4901,0.0,0.0
0.7246,0.0723,0.0088,0.0,0.0
0.2485,-0.1154,-0.5003,0.0,0.0
0.5295,-0.188,-0.435,0.0,0.0
-0.7891,-0.212,-0.5142,0.0,0.0
-0.4003,0.2085,-0.4127,0.0,0.0
0.7252,0.3724,-0.1579,0.0,0.0
-0.1215,-0.4026,-0.2339,0.0,0.0
-0.6895,-0.4026,0.5623,0.0,0.0
-0.4425,-0.1726,-0.1851,0.0,0.0
-0.4784,-0.0265,-0.4423,0.0,0.0
0.0759,-0.0651,-0.2811,0.0,0.0
-0.3106,-0.2595,-0.716,0.0,0.0
0.0112,-0.1262,-0.6081,0.0,0.0
-0.5566,-0.2026,0.0102,0.0,0.0
0.5295,-0.2903,-0.3334,1.6975577116092342,0.0974691446957691
0.0369,-0.4026,-0.3344,0.0,0.0
-0.5009,0.2617,-0.3502,0.0,0.0
0.2678,-0.1685,-0.1929,0.0,0.0
-0.7892,-0.333,0.3065,0.0,0.0
0.4575,-0.1763,-0.5718,0.0,0.0
-0.2134,-0.0906,-0.4712,0.0,0.0
-0.7732,-0.1726,0.0053,0.0,0.0
-0.6706,-0.3119,-0.7013,0.0,0.0
-0.1036,0.1478,-0.4626,0.0,0.0
-0.6544,0.0362,-0.3675,0.0,0.0
-0.0022,0.2037,-0.0142,1.8469387755102045,0.10604619891466169
0.1167,-0.0134,-0.3251,0.0,0.0
-0.7892,-0.3794,0.9047,0.0,0.0
-0.0599,-0.2826,-0.0957,2.9481431917029113,0.169274360082601
-0.5374,-0.1726,0.0705,0.0,0.0
-0.3022,-0.1726,-0.0533,0.2415523586483774,0.013869279162464582
-0.6824,-0.1726,0.491,0.2398795583807294,0.01377323152283533
0.3987,-0.0361,-0.1184,0.0,0.0
-0.0729,-0.4026,-0.0463,0.0,0.0
0.3046,0.2776,-0.3315,0.0,0.0
-0.6732,-0.4026,0.1274,0.0,0.0
0.3154,-0.1563,-0.2033,0.0,0.0
0.1519,0.0369,-0.2509,0.0,0.0
-0.5043,0.0753,-0.3718,0.0,0.0
-0.4896,-0.4026,-0.0414,0.0,0.0
0.5296,-0.2775,-0.638,0.0,0.0
-0.1781,-0.3293,-0.6865,0.0,0.0
0.5295,-0.4018,-0.0311,0.0,0.0
-0.7042,-0.2026,0.2458,0.0,0.0
0.1419,-0.3414,-0.6763,0.0,0.0
-0.4822,0.2051,-0.4167,0.0,0.0
0.7219,-0.16,-0.5527,0.0,0.0
0.5324,0.2845,-0.3234,4.389427902308465,0.252029006387168
0.6824,0.1877,-0.0004,2.198728671796588,0.12624501752869424
0.266,-0.4026,-0.6084,0.0,0.0
-0.1352,-0.0463,-0.4943,0.0,0.0
-0.402,-0.1726,0.4353,0.9759116761458684,0.05603419295970802
-0.5043,0.1535,-0.4535,0.0,0.0
-0.036,0.3,-0.3053,0.0,0.0
-0.0442,0.1804,0.0056,0.0,0.0
-0.2963,0.0369,-0.2651,0.0,0.0
-0.4381,-0.1402,-0.2171,0.0,0.0
-0.4318,-0.4026,0.5284,0.0,0.0
0.2398,-0.248,-0.6558,0.0,0.0
0.1057,-0.1408,-0.5763,0.0,0.0
-0.2009,-0.3526,-0.0361,0.2408832385413182,0.01383086010661288
0.7309,-0.2245,-0.6746,0.0,0.0
-0.3479,0.0369,-0.179,0.0,0.0
0.7315,0.1255,0.0526,0.0,0.0
0.487,-0.1376,-0.2193,0.0,0.0
-0.182,-0.4026,-0.0207,0.7350284376045502,0.04220333285309514
-0.192,-0.0282,-0.7174,0.0,0.0
-0.5622,-0.4026,-0.1504,0.0,0.0
-0.3915,-0.4026,0.1961,0.0,0.0
0.0416,-0.1881,-0.6318,0.0,0.0
0.7858,-0.1569,-0.5952,0.0,0.0
0.2015,-0.0697,-0.4466,0.0,0.0
-0.529,-0.2026,-0.0996,0.6094011375041821,0.034990155116938
-0.741,-0.2163,-0.665,0.0,0.0
-0.2365,0.008,-0.5284,0.2408832385413182,0.01383086010661288
-0.4203,0.2377,-0.3783,0.0,0.0
0.4984,-0.2039,-0.6041,0.0,0.0
0.6108,-0.0833,-0.2655,0.0,0.0
0.0763,0.1738,0.0113,2.6915356306457014,0.1545406521634731
-0.4929,-0.0498,-0.4696,0.0,0.0
0.52,-0.1801,-0.5762,0.0,0.0
-0.0038,0.0241,-0.4443,0.0,0.0
-0.4635,-0.1726,-0.1421,0.0,0.0
0.0108,-0.4026,-0.0446,0.0,0.0
-0.4069,-0.2026,0.4803,0.977919036467046,0.05614945012726313
0.035,-0.124,-0.7053,0.0,0.0
0.0278,0.0369,-0.3679,0.0,0.0
-0.2013,0.093,-0.416,0.0,0.0
-0.3928,-0.4026,0.0629,0.0,0.0
0.7845,0.004,-0.4064,0.9836065573770494,0.0564760121020026
0.4843,0.0369,-0.072,0.0,0.0
-0.1169,-0.0929,-0.6538,0.0,0.0
-0.7892,-0.0791,-0.4735,0.0,0.0
-0.6996,-0.2026,0.2175,0.0,0.0
-0.507,-0.1448,-0.5348,0.0,0.0
0.6351,-0.2132,-0.6613,0.0,0.0
0.7445,-0.3845,-0.5278,0.0,0.0
-0.3289,0.0084,-0.5262,0.0,0.0
0.7072,0.0026,-0.3388,0.0,0.0
-0.4168,-0.0038,-0.0805,0.0,0.0
0.5172,-0.0457,-0.1296,0.0,0.0
0.4476,0.2491,-0.0528,0.0,0.0
-0.6266,-0.1726,0.0479,0.0,0.0
-0.2444,0.0369,-0.1237,0.0,0.0
-0.7364,-0.4026,0.5615,0.0,0.0
-0.0333,-0.2594,-0.7159,0.0,0.0
0.7027,0.3276,-0.273,0.0,0.0
-0.6717,-0.2026,0.3329,0.0,0.0
-0.4638,-0.4026,0.4088,0.0,0.0
-0.5044,0.094,-0.0535,0.0,0.0
-0.2892,-0.2733,-0.0522,0.0,0.0
-0.226,-0.1383,-0.8494,0.0,0.0
0.5414,-0.0731,-0.2743,0.0,0.0
0.5579,0.1916,-0.4325,0.0,0.0
-0.7755,-0.2026,0.2703,0.6040481766477084,0.034682802670124385
-0.5985,-0.4026,0.161,0.0,0.0
-0.0704,-0.3824,-0.6413,0.0,0.0
0.5692,0.0952,-0.4177,0.0,0.0
-0.5461,-0.1949,-0.1896,0.0,0.0
-0.2962,0.3543,-0.1425,0.0,0.0
0.6491,-0.4026,-0.4125,0.0,0.0
0.0471,0.2961,-0.0929,0.0,0.0
-0.3169,0.3104,-0.2931,0.0,0.0
-0.5296,-0.2026,0.3525,0.3671796587487455,0.021082456898621718
-0.3925,0.301,-0.0971,0.0,0.0
-0.321,-0.27,-0.6817,0.0,0.0
-0.7715,-0.2026,0.2313,0.0,0.0
-0.0203,-0.0013,-0.5771,0.26129140180662436,0.015002641310089807
0.0682,-0.1187,-0.5974,0.0,0.0
0.0967,0.3846,-0.1684,0.25292740046838413,0.014522403111943525
0.3825,-0.4026,-0.208,0.0,0.0
-0.192,-0.1093,-0.584,0.0,0.0
-0.7892,-0.3998,0.5202,0.0,0.0
-0.0551,-0.2485,-0.1248,3.4182000669120116,0.19626374681842196
-0.2892,-0.1884,0.4627,3.5048511207761797,0.2012390145512174
-0.4325,0.186,0.0008,0.0,0.0
0.4075,0.1716,-0.456,2.0871528939444635,0.11983863996542286
0.5146,-0.1993,-0.5988,0.0,0.0
-0.7892,-0.3192,-0.2058,0.0,0.0
0.0017,-0.2139,-0.785,0.0,0.0
-0.1226,-0.0266,-0.1073,0.0,0.0
0.4321,0.306,-0.2983,0.0,0.0
-0.5243,-0.1377,-0.5265,0.0,0.0
-0.5189,-0.4026,0.6433,0.0,0.0
-0.2842,0.0256,-0.3886,0.0,0.0
-0.1333,-0.0353,-0.3065,0.0,0.0
0.7418,-0.0049,-0.4169,2.678153228504517,0.15377227104643904
0.0836,-0.0607,-0.5148,5.2731682837069265,0.3027709744033041
-0.7586,-0.4026,0.4272,0.0,0.0
0.416,-0.069,-0.157,0.0,0.0
-0.1529,-0.1628,-0.6022,0.0,0.0
-0.0689,0.0005,-0.3643,0.0,0.0
-0.1955,-0.2274,-0.7735,0.0,0.0
0.3383,0.0369,-0.3259,0.0,0.0
0.5296,-0.1919,-0.4988,4.158916025426565,0.23879364164625658
0.095,-0.1085,-0.5385,0.0,0.0
-0.0719,0.0221,-0.4548,0.3678487788558047,0.02112087595447342
-0.2152,0.2569,-0.3559,0.0,0.0
0.1281,0.0706,-0.3968,0.0,0.0
0.4194,0.1016,-0.4231,0.0,0.0
-0.2316,-0.4026,-0.0104,0.0,0.0
0.7866,0.1806,-0.0217,5.571930411508867,0.3199250828410892
-0.6319,-0.4026,0.8207,0.0,0.0
-0.7375,-0.0625,-0.4845,0.8529608564737372,0.048974691446957694
0.248,-0.4026,-0.5014,0.0,0.0
-0.3952,-0.2522,0.9091,0.0,0.0
0.5796,0.0596,-0.0061,0.0,0.0
-0.7886,-0.1726,0.7474,0.0,0.0
0.1893,0.1335,0.0457,0.0,0.0
-0.5517,-0.1726,0.1278,0.0,0.0
0.1301,-0.2643,-0.1113,0.0,0.0
-0.3162,-0.0103,-0.6238,0.0,0.0
-0.6561,-0.1726,0.8923,0.0,0.0
-0.1861,-0.1187,-0.2355,0.4827701572432253,0.02771934879700332
-0.6841,-0.2026,-0.1187,0.0,0.0
-0.0626,-0.4026,-0.1547,0.0,0.0
-0.1954,-0.0286,-0.7194,0.0,0.0
0.408,-0.2918,-0.0878,0.0,0.0
-0.6034,-0.1965,-0.6417,0.0,0.0
0.2616,0.1797,-0.4464,0.0,0.0
-0.6439,-0.2026,0.7132,0.0,0.0
0.4479,-0.1711,-0.6119,0.0,0.0
-0.3598,-0.1234,-0.5097,0.0,0.0
-0.6201,-0.2026,0.015,0.0,0.0
-0.5975,-0.4026,0.1903,0.0,0.0
-0.0969,-0.0451,-0.8058,0.0,0.0
0.5854,0.2794,-0.3295,5.259116761458683,0.3019641742304183
-0.3506,-0.4026,0.215,0.0,0.0
-0.1227,-0.3401,-0.6774,0.0,0.0
-0.7892,-0.2058,0.5929,0.0,0.0
-0.3378,0.3849,-0.2057,0.0,0.0
-0.2403,-0.0812,-0.544,0.0,0.0
0.7717,0.0369,-0.3098,5.0001672800267665,0.2870959996158095
-0.7608,-0.4026,-0.181,0.0,0.0
-0.112,-0.4026,-0.0013,0.8553027768484445,0.04910915814243865
-0.2212,-0.318,-0.0656,6.600535296085649,0.3789847764491188
-0.2732,-0.0182,-0.665,0.0,0.0
-0.1808,-0.2379,-0.6441,0.0,0.0
-0.251,0.2265,-0.3916,0.0,0.0
-0.5044,0.1214,-0.289,0.0,0.0
-0.3729,-0.2448,0.9091,0.0,0.0
-0.5431,-0.1726,0.4224,0.4891267982602878,0.028084329827594488
0.4387,-0.1148,-0.4996,0.0,0.0
0.7351,0.2893,-0.3179,0.0,0.0
-0.758,-0.1726,0.4162,0.0,0.0
-0.0382,-0.2447,-0.1281,2.3206758113081305,0.13324689045766702
-0.2632,-0.0782,-0.5078,0.0,0.0
-0.7431,-0.0208,-0.3893,0.0,0.0
-0.0627,-0.2674,-0.6787,0.0,0.0
0.2262,-0.0648,-0.4871,0.4894613583138175,0.028103539355520343
0.6957,0.0369,-0.0638,0.0,0.0
0.0652,-0.153,-0.5444,0.0,0.0
-0.0537,-0.0929,-0.8158,0.0,0.0
-0.6747,-0.1726,0.3967,0.0,0.0
-0.3195,-0.07,-0.4984,0.0,0.0
-0.0356,-0.047,-0.472,0.0,0.0
0.3296,0.1414,0.039,4.564570090331214,0.26208519425635113
0.0545,-0.1552,-0.547,0.0,0.0
-0.7201,-0.1726,0.6012,0.0,0.0
0.7866,0.2392,-0.085,0.49013047842087665,0.028141958411372042
0.7247,0.0292,-0.3613,0.0,0.0
0.0956,-0.0856,-0.5739,1.0888256942121113,0.0625174086346828
0.5296,-0.2797,-0.6649,0.0,0.0
-0.3209,-0.4026,-0.0879,0.0,0.0
-0.2815,0.007,-0.4029,0.0,0.0
-0.0694,-0.3744,-0.6481,0.0,0.0
-0.2423,0.0187,-0.4017,0.0,0.0
-0.2247,0.0166,-0.0565,0.0,0.0
0.5791,0.3589,-0.1463,0.240214118434259,0.013792441050761179
0.337,0.0369,-0.1688,0.0,0.0
0.6836,-0.3372,-0.3653,3.9123452659752433,0.2246362195649042
0.01,0.0046,-0.4058,0.0,0.0
-0.7892,-0.3104,-0.2937,0.0,0.0
-0.4471,-0.1644,-0.1965,0.0,0.0
0.4015,-0.4026,-0.1871,0.0,0.0
0.3587,0.0646,-0.0002,0.0,0.0
0.0544,-0.4026,-0.0716,0.0,0.0
-0.1521,0.0178,-0.3902,0.0,0.0
-0.2892,-0.3236,0.0658,0.2515891602542657,0.014445565000240121
-0.2488,-0.4026,-0.1295,0.0,0.0
-0.5044,0.1351,-0.3877,0.0,0.0
-0.4424,-0.4026,-0.1623,0.0,0.0
-0.7891,-0.3311,-0.3859,0.0,0.0
0.2248,-0.1529,-0.2062,0.0,0.0
-0.0909,-0.0639,-0.9037,0.0,0.0
-0.0508,0.025,-0.4399,0.0,0.0
-0.4536,-0.2026,0.2681,0.0,0.0
0.5885,-0.0598,-0.2856,0.0,0.0
-0.0597,0.0139,-0.4085,0.0,0.0
0.1975,0.3003,-0.305,0.0,0.0
-0.4238,-0.3328,-0.6836,0.0,0.0
0.6606,0.3654,-0.2286,0.0,0.0
-0.6297,-0.1726,0.4328,0.0,0.0
0.5571,-0.4026,-0.4866,0.0,0.0
-0.2892,-0.1845,0.5384,5.4969889595182355,0.3156221485856986
0.449,-0.0868,-0.2626,0.0,0.0
-0.0227,-0.0929,-0.7601,0.0,0.0
0.2375,0.0095,-0.4,0.0,0.0
-0.7891,-0.3477,-0.454,0.0,0.0
-0.7892,-0.2731,0.1089,0.0,0.0
-0.3396,-0.2334,0.9091,0.0,0.0
0.6609,0.0369,-0.2304,0.0,0.0
-0.3164,-0.1116,-0.4959,0.0,0.0
0.7138,-0.0552,-0.2894,0.0,0.0
0.0236,-0.2103,-0.6116,0.0,0.0
-0.7694,-0.4026,0.3516,0.0,0.0
-0.7892,-0.3296,-0.3328,0.0,0.0
0.522,0.1801,0.006,0.0,0.0
-0.0149,-0.1558,-0.2038,0.0,0.0
0.6066,-0.4026,-0.5112,0.0,0.0
0.0993,0.1446,0.0362,2.567246570759452,0.14740431253901937
0.3195,-0.0896,-0.47,0.0,0.0
-0.5287,-0.3225,-0.6923,0.0,0.0
-0.6798,-0.2026,0.0203,0.0,0.0
-0.4092,-0.2026,-0.0481,0.2398795583807294,0.01377323152283533
-0.5044,0.285,-0.1542,0.0,0.0
-0.6953,-0.4026,0.7153,0.0,0.0
-0.0978,-0.2773,-0.7309,0.0,0.0
-0.3941,0.2972,-0.0939,0.0,0.0
-0.6166,-0.4026,0.7803,0.0,0.0
-0.2627,-0.0726,-0.8434,0.0,0.0
0.1195,0.1322,0.0468,1.713951154232185,0.09841041156413582
0.5304,-0.0078,-0.3299,0.0,0.0
-0.6099,-0.2946,-0.716,0.0,0.0
-0.1532,-0.0618,-0.8528,0.0,0.0
-0.515,-0.1687,-0.6091,0.0,0.0
0.6953,0.0369,-0.0971,0.0,0.0
0.4675,0.2352,-0.0409,1.002676480428237,0.05757095519377612
-0.2076,-0.041,-0.4868,0.0,0.0
-0.3248,-0.0987,-0.569,0.0,0.0
-0.5044,0.0902,-0.121,0.0,0.0
0.6012,0.0369,-0.1685,0.0,0.0
-0.5723,-0.4026,-0.2202,0.0,0.0
-0.4775,0.1278,-0.4457,0.0,0.0
0.1638,0.1441,0.0366,0.5423218467714955,0.03113864476780483
0.0114,0.0226,-0.3846,0.0,0.0
0.2972,-0.4026,-0.2124,0.0,0.0
-0.1583,0.3634,-0.1503,0.0,0.0
0.0854,-0.1364,-0.851,0.0,0.0
-0.4146,-0.1726,-0.0628,0.2398795583807294,0.01377323152283533
-0.7892,-0.1554,-0.2278,0.0,0.0
-0.1403,-0.1306,-0.6799,0.0,0.0
-0.5454,-0.4026,0.5499,0.0,0.0
-0.2496,0.0137,-0.4023,0.0,0.0
0.168,0.0369,-0.0685,0.0,0.0
0.1087,0.0369,-0.2482,0.0,0.0
0.0131,-0.026,-0.3145,0.0,0.0
-0.7892,-0.209,0.8193,0.0,0.0
-0.3592,-0.4026,0.4629,0.0,0.0
0.0592,0.1212,-0.4399,0.0,0.0
-0.2073,0.0832,-0.4076,0.0,0.0
-0.0328,-0.0809,-0.4597,0.0,0.0
-0.1474,-0.2148,-0.7842,0.0,0.0
-0.0673,-0.0929,-0.6857,0.0,0.0
-0.7229,-0.1851,0.9091,0.0,0.0
0.1396,0.2714,-0.0719,0.0,0.0
-0.5182,-0.1726,0.5913,0.0,0.0
-0.6346,-0.4026,-0.0567,0.0,0.0
-0.4597,-0.2026,0.6204,0.0,0.0
-0.3418,-0.1436,-0.6497,0.0,0.0
0.466,-0.2165,-0.152,0.0,0.0
0.3584,0.0242,-0.3572,0.0,0.0
-0.5857,-0.1726,0.7752,0.0,0.0
-0.2892,-0.3947,0.8436,0.0,0.0
0.2967,-0.0631,-0.2828,0.0,0.0
-0.601,-0.0615,-0.437,0.0,0.0
0.087,-0.4026,-0.1752,0.0,0.0
0.1643,-0.0559,-0.4305,0.0,0.0
-0.3129,-0.4026,-0.0138,0.0,0.0
-0.255,0.0891,-0.4126,0.0,0.0
0.449,0.1249,0.053,0.4834392773502845,0.027757767852855022
-0.2412,-0.1356,-0.6608,0.0,0.0
-0.2386,-0.4026,-0.0219,0.0,0.0
0.1735,0.0369,-0.2742,0.0,0.0
-0.6736,-0.2745,-0.7332,0.0,0.0
0.3664,0.3778,-0.1625,0.0,0.0
-0.7869,-0.2026,0.6462,0.0,0.0
-0.7587,-0.2026,0.0055,0.0,0.0
-0.2644,-0.2222,-0.6731,0.0,0.0
-0.2681,0.002,-0.5598,0.0,0.0
0.488,-0.2298,-0.6345,0.0,0.0
-0.1594,0.0144,-0.4949,0.0,0.0
0.5296,-0.2966,-0.5574,0.0,0.0
-0.2467,-0.0929,-0.7862,0.0,0.0
-0.7539,-0.4026,0.4397,0.0,0.0
-0.2339,0.3813,-0.1656,0.0,0.0
0.1684,-0.1574,-0.2024,0.0,0.0
-0.5043,0.0291,-0.3483,0.0,0.0
-0.0431,0.0369,-0.189,0.0,0.0
-0.2892,-0.4009,0.682,0.0,0.0
0.6973,-0.4026,-0.5573,0.0,0.0
-0.6694,-0.219,0.9091,0.0,0.0
-0.4772,0.0369,-0.2277,0.0,0.0
-0.4449,0.063,-0.0021,0.0,0.0
-0.1055,0.0369,-0.0927,0.0,0.0
-0.5363,0.0228,-0.3561,0.0,0.0
0.5644,-0.4026,-0.5086,0.0,0.0
0.2764,-0.0607,-0.1472,0.0,0.0
-0.5044,0.2746,-0.1149,0.0,0.0
0.011,0.0605,-0.005,4.269320843091336,0.24513278586178747
-0.355,-0.1206,-0.5526,0.0,0.0
0.0332,-0.1269,-0.2249,0.0,0.0
-0.5933,-0.4026,-0.4165,0.0,0.0
-0.5493,-0.4026,-0.1546,0.0,0.0
-0.6573,-0.4026,-0.2412,0.0,0.0
0.2027,0.0477,-0.3773,0.0,0.0
-0.1592,-0.0738,-0.2738,0.0,0.0
0.0408,-0.1178,-0.7293,0.0,0.0
-0.6361,-0.2026,-0.0338,0.0,0.0
0.2441,-0.2565,-0.6659,0.0,0.0
-0.2141,-0.1266,-0.5597,0.0,0.0
0.1694,-0.4026,-0.306,0.0,0.0
-0.2787,0.1348,-0.4516,0.0,0.0
-0.2606,-0.4026,-0.5793,0.0,0.0
-0.4596,0.3077,-0.2962,0.0,0.0
-0.6894,-0.2026,0.0154,0.0,0.0
-0.1152,-0.2531,-0.7516,0.0,0.0
0.3701,0.0672,-0.3938,0.0,0.0
0.4103,0.0369,-0.072,0.0,0.0
0.6526,-0.4026,-0.5023,0.0,0.0
0.5296,-0.2933,-0.4715,0.0,0.0
0.7011,0.0777,0.0151,0.0,0.0
-0.1199,-0.3778,-0.0146,3.1699565071930422,0.18201027709744036
-0.6238,-0.2026,0.4937,0.0,0.0
0.0768,-0.1061,-0.7746,0.0,0.0
0.5296,-0.3856,-0.4364,0.0,0.0
-0.37,-0.2343,0.9091,0.0,0.0
-0.3267,-0.4026,0.7543,0.0,0.0
-0.1087,-0.2822,-0.0961,3.809468049514889,0.21872928972770497
-0.2892,-0.3275,0.3199,0.0,0.0
-0.7314,-0.1662,-0.6061,0.0,0.0
-0.273,0.0369,-0.3228,0.0,0.0
0.003,0.1055,-0.4266,0.0,0.0
-0.6898,-0.1706,-0.6113,0.0,0.0
0.4024,-0.2956,-0.7118,0.0,0.0
-0.3543,0.2689,-0.0698,0.0,0.0
-0.2893,0.0125,-0.5047,0.0,0.0
0.2295,-0.3746,-0.648,0.0,0.0
-0.3712,-0.055,-0.2898,0.0,0.0
0.265,0.3538,-0.2422,0.0,0.0
0.7378,0.0369,-0.3156,0.0,0.0
-0.5663,-0.4026,-0.0621,0.0,0.0
0.3854,-0.4026,-0.6171,0.0,0.0
-0.1308,0.1883,-0.4363,0.0,0.0
0.139,-0.4026,-0.1484,0.0,0.0
-0.0954,-0.1351,-0.2214,0.0,0.0
0.0951,0.0861,0.025,0.0,0.0
-0.4641,0.0369,-0.2835,0.0,0.0
-0.3589,-0.1726,0.8147,0.0,0.0
-0.0988,-0.06,-0.8543,0.0,0.0
0.6028,-0.1258,-0.2237,0.0,0.0
-0.7892,-0.3552,0.793,0.0,0.0
-0.7892,-0.214,0.264,0.0,0.0
0.5685,-0.2589,-0.6687,0.0,0.0
0.2303,0.0369,-0.36,0.0,0.0
-0.743,-0.2026,-0.112,0.0,0.0
0.2644,-0.4026,-0.5705,0.0,0.0
0.0957,-0.0896,-0.8549,0.0,0.0
0.436,0.0234,-0.3837,0.0,0.0
0.0955,-0.0865,-0.5516,0.364168618266979,0.020909571147289058
-0.4293,0.0369,-0.0935,0.0,0.0
0.5435,0.2022,-0.42,0.0,0.0
-0.6384,-0.4026,0.0212,0.0,0.0
0.5389,0.2336,-0.3832,0.0,0.0
0.1236,0.0369,-0.0716,0.0,0.0
-0.1462,-0.0185,-0.6667,0.4948143191702912,0.02841089180233396
-0.2508,-0.1265,-0.5633,0.0,0.0
0.4131,0.1012,0.0427,0.6134158581465374,0.03522066945204822
-0.2892,-0.3863,0.6019,0.0,0.0
-0.7892,-0.2225,0.8245,0.0,0.0
0.5954,0.1449,0.036,2.408999665439947,0.13831820583009172
-0.1021,-0.0988,-0.5315,0.0,0.0
-0.1595,-0.1542,-0.8358,0.0,0.0
-0.2994,0.0983,-0.4204,0.0,0.0
-0.1282,0.0282,-0.3881,0.0,0.0
-0.2267,-0.2282,-0.6789,0.0,0.0
-0.0001,-0.1201,-0.2343,0.0,0.0
-0.4128,-0.0733,-0.162,0.0,0.0
-0.324,-0.1726,-0.1549,0.0,0.0
-0.2366,0.0356,-0.0343,0.0,0.0
0.1626,0.294,-0.3124,0.0,0.0
-0.4698,-0.4026,0.4029,0.0,0.0
0.0113,0.3943,-0.1767,0.6154232184677151,0.035335926619603324
-0.0752,-0.2986,-0.0821,3.4258949481431924,0.19670556596071653
0.3631,-0.2588,-0.1159,0.0,0.0
0.6468,0.3805,-0.1647,1.5836400133824025,0.09092830043701677
-0.3676,-0.4026,-0.4742,0.0,0.0
-0.3929,0.0407,-0.0283,0.0,0.0
-0.4612,-0.3421,-0.6756,0.0,0.0
-0.2031,0.3438,-0.2539,0.0,0.0
-0.2892,-0.2609,0.7059,0.0,0.0
0.0956,-0.0904,-0.5985,0.0,0.0
0.4695,0.1649,0.019,1.1383405821344934,0.06536041876770879
0.1004,-0.0039,-0.3333,0.0,0.0
-0.3238,0.0314,-0.3836,0.0,0.0
0.0715,-0.0748,-0.4526,0.0,0.0
-0.1438,-0.0654,-0.8496,0.0,0.0
-0.5458,-0.4026,0.0694,0.0,0.0
-0.5049,-0.3633,-0.6575,0.0,0.0
0.7867,0.0675,-0.1866,0.2515891602542657,0.014445565000240121
-0.7892,-0.1755,-0.3854,0.0,0.0
0.5533,-0.2702,-0.6819,0.0,0.0
-0.6665,-0.4026,-0.2057,0.0,0.0
-0.0836,-0.2659,-0.11,2.1890264302442293,0.12568794121884455
0.3702,0.3375,-0.2613,0.0,0.0
-0.0767,-0.0027,-0.4212,0.0,0.0
-0.46,-0.1289,-0.5624,0.0,0.0
-0.2815,-0.1949,-0.1706,0.0,0.0
-0.1553,-0.1054,-0.7776,0.0,0.0
-0.3971,0.2509,-0.3629,0.0,0.0
-0.7606,-0.1726,-0.1062,0.0,0.0
-0.761,-0.136,-0.2208,0.0,0.0
-0.3831,0.3364,-0.1273,0.0,0.0
-0.7434,-0.4026,0.3968,0.0,0.0
-0.5044,0.0415,-0.1743,0.0,0.0
0.3741,-0.1317,-0.2243,0.0,0.0
0.7866,0.1867,-0.1184,0.0,0.0
-0.6315,-0.4026,0.2801,0.0,0.0
-0.4358,-0.4026,0.7585,0.0,0.0
-0.026,-0.4026,-0.6205,0.0,0.0
0.6147,-0.347,-0.357,1.351455336232854,0.07759688805647602
-0.4175,-0.1726,0.6816,0.0,0.0
0.3952,-0.0374,-0.455,0.0,0.0
0.2514,0.0369,-0.2283,0.0,0.0
-0.4916,-0.2026,0.2722,0.0,0.0
-0.2078,-0.3098,-0.7032,0.0,0.0
-0.0468,-0.4026,-0.3602,0.0,0.0
0.2067,0.1443,0.0365,0.0,0.0
-0.0909,-0.1611,-0.6001,0.0,0.0
-0.1373,-0.4026,-0.4651,0.0,0.0
-0.0872,-0.0986,-0.8036,0.0,0.0
-0.2819,-0.1325,-0.6726,0.0,0.0
-0.4916,-0.1726,0.0112,0.8502843760455003,0.04882101522355088
-0.1875,-0.3715,-0.02,0.7350284376045502,0.04220333285309514
0.0449,0.0369,-0.1163,0.0,0.0
-0.2074,-0.0362,-0.4595,0.0,0.0
-0.1456,-0.2167,-0.6668,0.0,0.0
-0.2599,0.2816,-0.0807,0.0,0.0
-0.7892,-0.3416,0.4901,0.0,0.0
0.2094,-0.3619,-0.0281,0.0,0.0
-0.0214,0.1957,-0.0074,0.36818333890933425,0.02114008548239927
0.2811,0.2005,-0.0114,0.0,0.0
0.4138,-0.0266,-0.4423,0.3788892606222818,0.02175479037602651
0.3383,0.0111,-0.3518,0.0,0.0
0.5148,-0.131,-0.5648,0.0,0.0
0.7867,-0.0708,-0.4662,1.5836400133824027,0.09092830043701677
-0.7652,-0.2909,-0.7192,0.0,0.0
-0.2568,0.0084,-0.4164,0.0,0.0
-0.4854,-0.2026,0.1096,0.0,0.0
-0.4071,0.0285,-0.361,0.0,0.0
0.0657,-0.1478,-0.2106,0.0,0.0
-0.4659,0.0369,-0.2302,0.0,0.0
-0.7146,-0.2026,0.268,0.2415523586483774,0.013869279162464582
0.3609,-0.2123,-0.614,0.0,0.0
-0.3554,-0.4026,0.0917,0.0,0.0
-0.008,-0.4026,-0.4756,0.0,0.0
0.6278,-0.3748,-0.6478,0.0,0.0
-0.3152,-0.1726,0.7218,4.524757443961192,0.2597992604331749
-0.2011,-0.4026,-0.6001,0.0,0.0
-0.7892,-0.3261,0.0478,0.0,0.0
-0.185,-0.4026,-0.4206,0.0,0.0
-0.5844,-0.2026,0.2519,0.0,0.0
0.3255,-0.1293,-0.5628,0.0,0.0
0.1502,-0.3346,-0.6821,0.0,0.0
-0.662,-0.1726,0.0846,0.0,0.0
0.5296,-0.3482,-0.5938,0.0,0.0
-0.5338,-0.3625,-0.6582,0.0,0.0
0.0396,-0.1182,-0.7277,0.0,0.0
0.2139,0.0369,-0.1752,0.0,0.0
0.1494,-0.0909,-0.4715,0.0,0.0
-0.4413,-0.4026,-0.0287,0.0,0.0
-0.0138,-0.1633,-0.6027,0.0,0.0
-0.1053,0.0369,-0.0715,0.0,0.0
0.0829,-0.0558,-0.8617,0.0,0.0
-0.2599,-0.3928,-0.6324,0.0,0.0
-0.6506,-0.2893,-0.7043,0.0,0.0
-0.5342,-0.242,-0.6951,0.0,0.0
-0.338,-0.0434,-0.127,0.0,0.0
0.0348,-0.1394,-0.5781,0.0,0.0
0.1516,-0.1171,-0.5485,0.0,0.0
0.0956,0.0012,-0.4517,0.3671796587487455,0.021082456898621718
-0.4571,-0.2026,-0.059,0.6094011375041821,0.034990155116938
0.0239,0.0123,-0.3471,0.0,0.0
-0.4792,-0.2782,-0.6913,0.0,0.0
-0.7369,-0.2026,0.2041,0.0,0.0
-0.0734,-0.1198,-0.599,0.0,0.0
-0.4142,-0.4026,-0.2518,0.0,0.0
-0.0089,0.0854,0.0242,1.212278353964537,0.06960572443932192
-0.4502,-0.1303,-0.2256,0.0,0.0
-0.6223,-0.4026,-0.5571,0.0,0.0
-0.4426,0.3963,-0.1784,0.0,0.0
-0.7892,-0.3828,0.3083,0.0,0.0
0.0072,-0.0034,-0.5879,0.0,0.0
-0.2216,0.0369,-0.2957,0.0,0.0
-0.7892,-0.2876,0.371,0.0,0.0
0.139,0.0369,-0.2195,0.0,0.0
-0.0194,0.0369,-0.338,0.0,0.0
-0.7039,-0.1726,0.3232,0.0,0.0
-0.3304,-0.0559,-0.4305,0.0,0.0
0.6819,-0.0955,-0.1881,0.0,0.0
-0.3141,-0.123,-0.5555,0.0,0.0
0.3336,-0.1461,-0.5363,0.0,0.0
-0.2224,-0.3127,-0.0701,6.724489795918368,0.38610190654564663
0.3338,-0.1226,-0.5549,0.0,0.0
0.3123,0.3877,-0.1709,0.0,0.0
-0.1388,-0.1732,-0.617,0.0,0.0
-0.1426,0.058,-0.3861,0.0,0.0
-0.4289,0.0369,-0.1662,0.0,0.0
-0.5806,-0.2026,0.5478,0.0,0.0
0.6261,-0.3955,-0.3158,0.8636667781866847,0.049589396340584936
0.001,-0.0157,-0.3834,0.0,0.0
-0.5767,-0.2026,0.4439,1.3350618936099032,0.07665562118810931
0.688,-0.4,-0.6264,0.0,0.0
0.2832,-0.3539,-0.0349,0.0,0.0
0.0812,0.0369,-0.1773,0.0,0.0
-0.2892,-0.3409,0.2073,0.0,0.0
-0.569,-0.0729,-0.4967,0.0,0.0
0.52,-0.0025,-0.4141,0.0,0.0
-0.1935,-0.1533,-0.206,0.4827701572432253,0.02771934879700332
-0.0007,0.0369,-0.2121,0.0,0.0
0.255,-0.3604,-0.0294,0.0,0.0
-0.5935,-0.1726,0.6243,0.0,0.0
-0.6704,-0.2208,-0.624,0.0,0.0
0.7867,0.1957,-0.2403,4.7721646035463365,0.2740047063343418
-0.5044,0.1562,-0.024,0.0,0.0
-0.7892,-0.27,0.3749,0.0,0.0
0.4655,-0.0644,-0.4867,0.0,0.0
-0.7152,-0.4026,0.2498,0.0,0.0
-0.0151,-0.4026,-0.4602,0.0,0.0
0.3608,0.032,-0.3638,0.0,0.0
0.0956,-0.0617,-0.6081,0.6331549013047844,0.036354031599673445
-0.1966,-0.1153,-0.7392,0.0,0.0
0.4833,-0.0583,-0.1444,0.0,0.0
-0.6125,-0.1726,-0.0127,0.0,0.0
-0.1445,-0.0543,-0.2904,0.0,0.0
-0.4232,0.2411,-0.3745,0.0,0.0
0.5296,-0.3681,-0.5679,0.0,0.0
-0.2198,-0.2037,-0.6039,0.0,0.0
0.011,-0.1184,-0.5501,0.0,0.0
-0.4754,-0.0645,-0.4406,0.0,0.0
0.0502,-0.1331,-0.6701,0.0,0.0
-0.3976,-0.1217,-0.2329,0.0,0.0
-0.2892,-0.3241,0.4315,0.0,0.0
-0.3972,-0.4026,0.8476,0.0,0.0
0.7481,0.1669,0.0173,0.0,0.0
-0.0989,-0.4026,-0.3213,0.0,0.0
0.1249,-0.0336,-0.4506,1.4744061559049852,0.08465638956922635
-0.5326,-0.2026,-0.1033,0.36985613917698235,0.021236133122028527
-0.371,-0.4026,-0.3219,0.0,0.0
0.0951,-0.0719,-0.5308,1.5782870525259287,0.09062094799020315
-0.4318,0.0369,-0.2226,0.0,0.0
-0.544,-0.4026,-0.0948,0.0,0.0
0.4456,0.2237,-0.0311,0.6311475409836067,0.036238774432118336
0.2265,-0.0095,-0.376,0.0,0.0
-0.417,-0.2026,0.8714,0.0,0.0
0.5296,-0.343,-0.394,0.0,0.0
-0.1446,-0.1175,-0.5529,0.0,0.0
-0.1625,-0.3462,-0.6722,0.0,0.0
-0.778,-0.2547,0.9091,0.0,0.0
0.2234,0.096,-0.4184,0.0,0.0
-0.1885,0.003,-0.5546,0.0,0.0
-0.368,-0.2026,0.0004,0.2398795583807294,0.01377323152283533
0.6876,-0.4026,-0.4184,0.0,0.0
-0.0764,-0.0301,-0.4712,0.0,0.0
-0.1085,-0.1371,-0.655,0.0,0.0
-0.243,0.0992,-0.4212,0.0,0.0
0.3044,-0.1234,-0.5096,0.0,0.0
-0.3071,-0.4026,0.3483,0.0,0.0
-0.2532,-0.0797,-0.5419,0.0,0.0
-0.297,-0.4026,-0.3343,0.0,0.0
-0.5625,-0.31,0.9091,0.5680829708932754,0.03261777841809538
0.3848,-0.1589,-0.5513,0.0,0.0
0.2528,-0.2937,-0.7169,0.0,0.0
-0.4507,-0.3068,0.9091,0.0,0.0
-0.0913,-0.0113,-0.3781,0.0,0.0
-0.7468,-0.1726,0.4697,0.0,0.0
-0.3487,-0.4026,-0.3779,0.0,0.0
-0.7892,-0.3519,0.6931,0.0,0.0
-0.0326,-0.1018,-0.7915,0.0,0.0
-0.5099,-0.038,-0.3043,0.0,0.0
-0.1458,0.0328,-0.3803,0.0,0.0
0.0195,-0.2635,-0.7203,0.0,0.0
0.7607,-0.2488,-0.6568,0.0,0.0
-0.6053,-0.2026,0.4922,0.0,0.0
-0.1763,-0.1243,-0.5108,0.0,0.0
-0.2211,-0.0911,-0.259,0.0,0.0
-0.2307,0.0369,-0.0328,0.0,0.0
0.0563,-0.097,-0.8845,0.0,0.0
0.7769,0.0955,0.036,0.0,0.0
-0.3145,-0.2171,-0.6673,0.0,0.0
-0.7892,-0.2882,0.6834,0.0,0.0
0.4746,-0.4026,-0.1259,0.0,0.0
-0.4198,-0.2026,0.7322,0.0,0.0
-0.3371,-0.2026,0.8107,0.0,0.0
0.0619,0.3173,-0.285,0.0,0.0
-0.5692,-0.4026,0.7175,0.0,0.0
0.0316,-0.0965,-0.8118,0.0,0.0
-0.7892,-0.4018,0.3113,0.0,0.0
-0.1514,-0.0065,-0.0836,0.0,0.0
-0.2516,0.3629,-0.2315,0.0,0.0
0.2514,-0.3096,-0.0726,0.0,0.0
-0.6626,-0.0526,-0.2919,0.0,0.0
0.4821,0.2381,-0.3779,0.0,0.0
-0.3273,-0.2026,-0.0159,1.0894948143191705,0.06255582769053451
-0.0086,0.0255,-0.0462,0.0,0.0
-0.4538,0.339,-0.1296,0.0,0.0
-0.2892,-0.215,0.4131,2.2514218802275012,0.12927051817701582
0.0105,-0.3295,-0.0557,0.0,0.0
0.3958,-0.1515,-0.2074,0.0,0.0
0.469,-0.4026,-0.3342,0.0,0.0
0.374,-0.0972,-0.5252,0.0,0.0
-0.4064,0.341,-0.2572,0.0,0.0
0.6174,-0.2397,-0.6461,0.0,0.0
0.7023,0.2243,-0.0317,4.999330879892942,0.28704797579599484
0.7867,0.1513,-0.1823,2.0898293743727003,0.11999231618882968
0.4521,0.2452,-0.0495,0.0,0.0
0.0692,-0.0996,-0.5702,0.0,0.0
-0.3431,-0.0289,-0.11,0.0,0.0
-0.5692,-0.1726,0.353,0.24255603880896626,0.013926907746242136
-0.2892,-0.1805,-0.1886,0.0,0.0
0.3833,-0.1477,-0.5845,0.0,0.0
0.5296,-0.2718,-0.5916,0.0,0.0
-0.6315,-0.4026,-0.1708,0.0,0.0
-0.3663,-0.2692,0.9091,0.0,0.0
0.218,-0.1922,-0.5904,3.184677149548345,0.1828554963261778
-0.7163,-0.1783,-0.5741,0.0,0.0
-0.0661,-0.044,-0.7999,0.0,0.0
-0.3657,-0.4026,0.8882,0.0,0.0
-0.1649,-0.1941,-0.6409,0.0,0.0
0.5296,-0.2081,-0.5211,0.0,0.0
-0.464,-0.4026,0.2508,0.0,0.0
0.2553,0.2421,-0.3733,0.0,0.0
0.0119,-0.1237,-0.51,0.0,0.0
0.2509,-0.0732,-0.162,0.0,0.0
-0.2994,0.0146,-0.4075,0.0,0.0
0.0367,-0.0366,-0.46,0.0,0.0
-0.0031,-0.1056,-0.7766,0.0,0.0
-0.7256,-0.1808,-0.5771,0.0,0.0
0.0418,-0.1316,-0.6759,0.0,0.0
-0.4396,0.1149,-0.4347,0.0,0.0
0.7685,-0.2625,-0.7192,0.0,0.0
-0.7399,-0.2026,0.055,0.0,0.0
-0.426,-0.2026,0.1985,0.0,0.0
0.194,0.0369,-0.367,0.0,0.0
-0.4899,-0.2026,0.4812,1.3454332552693211,0.0772511165538107
-0.1232,-0.0763,-0.5006,0.0,0.0
0.6586,-0.4026,-0.5431,0.0,0.0
-0.4962,-0.2026,0.3153,0.49013047842087665,0.028141958411372042
-0.7522,-0.2268,0.9091,0.0,0.0
-0.1039,-0.1611,-0.603,0.0,0.0
0.3339,-0.2276,-0.632,0.0,0.0
0.2177,-0.3223,-0.6926,0.0,0.0
0.7867,0.2392,-0.3033,1.33773837403814,0.07680929741151611
-0.6185,-0.4026,-0.2342,0.0,0.0
0.5958,0.0369,-0.1543,0.0,0.0
0.5882,0.0369,-0.0519,0.0,0.0
0.7495,-0.3233,-0.3787,0.0,0.0
-0.6126,-0.1867,-0.6302,0.0,0.0
0.6382,-0.1968,-0.5958,0.0,0.0
0.5764,0.3156,-0.287,0.0,0.0
0.537,-0.1105,-0.2424,0.0,0.0
0.5295,-0.3043,-0.0985,7.686349949815993,0.4413292993324689
-0.3179,-0.1726,0.4543,1.7072599531615928,0.0980262210056188
-0.3448,-0.3025,-0.7093,0.0,0.0
-0.2845,-0.0853,-0.5499,0.0,0.0
-0.7424,-0.2026,0.0974,0.0,0.0
0.7445,-0.2563,-0.6567,0.0,0.0
-0.3209,0.3764,-0.1615,0.0,0.0
0.4685,-0.0652,-0.4877,0.0,0.0
-0.7575,0.0019,-0.3627,0.0,0.0
-0.5044,0.1375,-0.047,0.0,0.0
-0.0665,-0.1006,-0.2509,0.0,0.0
0.2,-0.0276,-0.1084,0.0,0.0
-0.069,0.2677,-0.3432,0.0,0.0
0.6593,0.3863,-0.1697,1.7179658748745403,0.09864092589924603
0.6139,-0.2608,-0.7171,0.0,0.0
0.3154,-0.0759,-0.2719,0.0,0.0
0.0805,0.261,-0.063,0.0,0.0
0.6446,-0.4026,-0.3119,1.1042154566744733,0.06340104691927197
0.7061,0.2101,-0.4108,1.2218133154901307,0.07015319598520867
0.0957,-0.1441,-0.7887,0.0,0.0
0.5449,-0.3596,-0.3463,4.760622281699565,0.2733419776208999
-0.2627,-0.0023,-0.4138,0.0,0.0
0.1759,-0.214,-0.1541,0.0,0.0
-0.6534,-0.099,-0.481,1.3611575777852127,0.0781539643663257
0.5295,-0.2444,-0.1459,2.6754767480762798,0.15361859482303222
-0.2892,-0.3219,0.6662,0.0,0.0
0.1006,-0.4026,-0.0509,0.0,0.0
-0.0001,0.0098,-0.4144,0.0,0.0
-0.4435,-0.4026,-0.217,0.0,0.0
0.3122,-0.0935,-0.4746,0.0,0.0
-0.6298,-0.4026,-0.493,0.0,0.0
0.2825,-0.1676,-0.6078,0.3688524590163935,0.021178504538250976
-0.4016,-0.4026,0.0521,0.0,0.0
-0.7892,-0.2867,0.5066,0.0,0.0
-0.5554,-0.4026,0.2673,0.0,0.0
0.5846,0.2699,-0.3406,4.769320843091336,0.27384142534697214
-0.7149,-0.1726,-0.0337,0.0,0.0
-0.6757,-0.1726,0.8417,0.0,0.0
-0.0154,-0.4026,-0.0881,0.0,0.0
0.2472,0.23,-0.0366,0.0,0.0
0.7867,0.0994,-0.1251,1.737203077952493,0.09974547375498248
-0.7579,0.0056,-0.3415,0.0,0.0
0.0208,-0.4026,-0.1258,0.0,0.0
-0.7892,-0.3321,0.2833,0.0,0.0
0.7146,-0.3589,-0.6614,0.0,0.0
0.192,-0.2794,-0.7292,0.0,0.0
0.2678,-0.1618,-0.5547,0.0,0.0
-0.2267,-0.0929,-0.8054,0.0,0.0
-0.0644,0.2815,-0.0805,0.0,0.0
-0.1281,-0.1684,-0.5624,0.0,0.0
-0.787,-0.4026,0.1845,0.0,0.0
-0.1793,0.1798,0.0061,0.0,0.0
-0.2787,0.148,-0.4628,0.0,0.0
0.5268,0.1996,-0.4231,0.0,0.0
0.6874,0.0369,-0.3028,0.0,0.0
0.1536,-0.2267,-0.1434,0.6154232184677152,0.03533592661960333
-0.2832,-0.3929,-0.0018,0.48946135831381743,0.02810353935552034
-0.0574,-0.249,-0.6571,0.0,0.0
0.5295,-0.3525,-0.1654,0.0,0.0
-0.53,-0.3348,-0.6818,0.0,0.0
0.5295,-0.3843,-0.2881,3.6266309802609573,0.20823128271622726
-0.7276,-0.2026,0.8992,0.0,0.0
0.468,-0.0672,-0.2792,0.0,0.0
-0.7892,-0.3016,-0.142,0.0,0.0
-0.7281,-0.2026,0.6892,0.0,0.0
-0.1538,-0.2181,-0.7814,0.0,0.0
0.5909,0.2654,-0.3459,2.57761793241887,0.14799980790472078
0.4395,0.1668,-0.4616,0.3705252592840415,0.021274552177880227
-0.0435,-0.2727,-0.7312,0.0,0.0
0.1104,0.0369,-0.2144,0.0,0.0
-0.5761,-0.4026,0.8753,0.0,0.0
0.5825,-0.1669,-0.6069,0.0,0.0
0.3235,0.0369,-0.1447,0.0,0.0
-0.5283,-0.1726,0.4206,0.4891267982602878,0.028084329827594488
-0.3867,-0.2026,-0.0155,0.6050518568082972,0.034740431253901936
0.0562,-0.0466,-0.4196,0.0,0.0
0.5034,-0.4026,-0.1164,0.0,0.0
-0.6065,-0.27,-0.7279,0.0,0.0
0.5861,-0.4026,-0.4404,0.0,0.0
-0.2793,-0.0635,-0.4856,0.0,0.0
-0.0977,-0.0821,-0.1724,0.0,0.0
0.2979,-0.2751,-0.7328,0.0,0.0
0.4484,-0.0216,-0.3902,0.0,0.0
-0.5058,-0.4026,-0.1434,0.0,0.0
-0.1604,-0.4026,-0.5991,0.0,0.0
0.7867,0.0267,-0.0906,1.5727668116426903,0.09030399077942661
-0.2892,-0.3853,0.8449,0.0,0.0
-0.5044,0.0834,-0.36,0.0,0.0
-0.4008,-0.2045,-0.6048,0.0,0.0
-0.7892,-0.3228,0.1636,0.0,0.0
-0.7664,-0.1726,0.6581,0.0,0.0
0.1516,-0.1892,-0.6331,0.6073937771830045,0.034874897949382894
0.7277,0.0369,-0.0373,0.0,0.0
-0.0763,-0.2998,-0.0811,3.4258949481431924,0.19670556596071653
-0.2368,-0.1353,-0.6618,0.0,0.0
0.3016,0.0618,-0.0035,0.0,0.0
-0.0045,-0.1356,-0.6606,0.0,0.0
0.292,-0.2607,-0.717,0.0,0.0
-0.2892,-0.2121,0.6953,2.970224155235865,0.17054218892570713
-0.6929,-0.332,-0.6842,0.0,0.0
0.0704,-0.0164,-0.4516,0.0,0.0
0.4801,-0.0605,-0.147,0.0,0.0
-0.2892,-0.3132,0.2483,0.5132151221144197,0.029467415838255778
0.7291,-0.3418,-0.676,3.4155235864837747,0.19611007059501515
-0.6271,-0.0807,-0.4595,0.0,0.0
-0.6587,-0.1726,0.0587,0.0,0.0
-0.7802,-0.1726,0.0882,0.0,0.0
-0.0634,0.2568,-0.0594,0.0,0.0
-0.5747,-0.4026,0.4851,0.0,0.0
-0.1994,-0.1413,-0.577,0.0,0.0
0.5716,-0.2017,-0.6016,0.0,0.0
-0.4793,-0.2026,0.8549,0.0,0.0
-0.3863,-0.4026,-0.1182,0.0,0.0
-0.1128,-0.0416,-0.7875,0.0,0.0
-0.5017,-0.4026,-0.2171,0.0,0.0
-0.7471,-0.2261,-0.6302,0.0,0.0
-0.2892,-0.3308,0.5867,0.0,0.0
0.7867,0.0232,-0.3473,6.387755102040819,0.3667675166882775
-0.6678,-0.2026,0.6934,0.0,0.0
-0.7892,-0.2488,0.485,0.0,0.0
0.019,-0.176,-0.1866,0.0,0.0
-0.331,0.3251,-0.2758,0.0,0.0
0.4259,-0.2663,-0.7236,0.0,0.0
0.7866,0.3099,-0.1404,0.0,0.0
-0.2338,-0.2431,-0.1295,0.0,0.0
-0.1526,0.1658,0.0181,0.0,0.0
-0.5018,-0.4026,0.1423,0.0,0.0
0.7867,-0.048,-0.2368,6.613248578119773,0.3797147385103011
0.0796,-0.0876,-0.8926,0.0,0.0
-0.0719,0.3262,-0.1186,0.0,0.0
0.3744,-0.1235,-0.5561,0.0,0.0
-0.5678,-0.1726,0.6914,0.0,0.0
-0.0318,-0.1485,-0.2101,0.0,0.0
0.6436,-0.2435,-0.6506,0.0,0.0
0.2504,0.2719,-0.0722,0.0,0.0
-0.6366,-0.3396,-0.6777,0.0,0.0
-0.3038,-0.2026,-0.1448,0.0,0.0
-0.1584,0.0108,-0.413,0.0,0.0
-0.0688,0.01,-0.5183,0.0,0.0
0.237,0.2127,-0.4077,0.6122448979591838,0.03515343610430774
-0.3856,-0.4026,0.1504,0.0,0.0
0.7867,0.1738,-0.1879,2.713951154232185,0.15582769053450513
-0.4547,-0.0581,-0.2872,0.0,0.0
-0.015,-0.056,-0.5081,0.0,0.0
0.1994,-0.2961,-0.7149,0.0,0.0
0.2345,0.1823,-0.4435,0.0,0.0
-0.2906,0.1343,0.0449,0.0,0.0
0.0478,-0.0507,-0.5005,0.0,0.0
-0.6993,-0.4026,0.6689,0.0,0.0
0.0557,-0.4026,-0.523,0.0,0.0
-0.3993,-0.0812,-0.4602,0.0,0.0
0.7314,0.1391,0.041,0.0,0.0
-0.1182,0.0369,-0.2881,0.0,0.0
-0.4683,0.1849,-0.4403,0.0,0.0
-0.5524,-0.3087,0.9091,0.5680829708932754,0.03261777841809538
0.0303,-0.0918,-0.5591,0.0,0.0
0.7866,0.3418,-0.1411,0.0,0.0
-0.3858,-0.1726,0.0931,2.5545332887253265,0.146674350477837
0.7788,0.1178,-0.4369,0.0,0.0
0.3049,0.0022,-0.4085,0.0,0.0
-0.0758,-0.2455,-0.6992,0.0,0.0
-0.2415,-0.0959,-0.8142,0.0,0.0
-0.7484,-0.4026,-0.1398,0.0,0.0
0.0619,-0.1068,-0.7718,0.0,0.0
-0.1716,-0.1241,-0.7051,0.0,0.0
-0.0515,-0.1844,-0.1794,0.0,0.0
-0.7866,-0.1726,0.6573,0.0,0.0
0.2712,0.0369,-0.0908,0.0,0.0
0.5752,0.0944,-0.417,0.0,0.0
0.5295,-0.2808,-0.3779,1.5886584141853466,0.09121644335590454
-0.1101,-0.0929,-0.7782,0.0,0.0
-0.0889,-0.0619,-0.5165,0.0,0.0
-0.6369,-0.4026,0.7258,0.0,0.0
-0.3418,-0.1346,-0.6659,0.0,0.0
-0.3468,-0.2642,-0.6749,0.0,0.0
-0.7892,-0.1817,0.7487,0.0,0.0
-0.3893,-0.2567,-0.6661,0.0,0.0
-0.0713,-0.0612,-0.5155,0.0,0.0
-0.5593,-0.4026,0.5028,0.0,0.0
0.038,-0.274,-0.7337,0.0,0.0
-0.4869,0.1978,-0.4252,0.0,0.0
-0.7317,-0.2162,0.9091,0.0,0.0
-0.211,-0.3028,-0.0785,5.149882903981266,0.2956922633626279
-0.1047,-0.1194,-0.5984,0.0,0.0
-0.5139,0.0098,-0.3534,0.0,0.0
-0.4673,-0.1726,0.5975,0.0,0.0
0.6255,0.2034,-0.4186,0.6207761793241888,0.03564327906641695
0.0956,-0.0402,-0.7593,0.0,0.0
0.0307,0.1592,-0.4705,0.858313817330211,0.04928204389377131
-0.1957,-0.1982,-0.7984,0.0,0.0
-0.4056,-0.1963,-0.1694,0.0,0.0
-0.3928,-0.0701,-0.1582,0.0,0.0
0.5032,0.3712,-0.2217,0.0,0.0
-0.3833,-0.4026,0.0598,0.0,0.0
-0.4048,-0.0538,-0.428,0.0,0.0
-0.53,-0.2026,0.8618,0.0,0.0
-0.6012,-0.1726,0.877,0.0,0.0
-0.3418,-0.0743,-0.5469,0.0,0.0
-0.7444,-0.4026,0.6984,0.0,0.0
-0.5038,-0.1726,0.5885,0.0,0.0
-0.2696,-0.2138,-0.7851,0.0,0.0
-0.1661,0.0369,-0.1488,0.0,0.0
0.7106,-0.2317,-0.4548,3.895951823352293,0.22369495269653752
-0.3296,-0.019,-0.4398,0.0,0.0
0.6567,0.4016,-0.1861,2.211441953830713,0.12697497958987658
-0.2111,0.0369,-0.189,0.0,0.0
0.2384,-0.381,-0.0118,0.0,0.0
0.7629,-0.027,-0.1077,0.3708598193375712,0.02129376170580608
0.6135,0.0369,-0.2283,0.0,0.0
0.048,0.2192,-0.4001,0.0,0.0
0.7866,0.2369,-0.2404,3.0597189695550355,0.17568073764587236
-0.2892,-0.3613,0.3946,0.0,0.0
0.7271,-0.3549,-0.6648,3.4155235864837747,0.19611007059501515
-0.5312,-0.4026,-0.3295,0.0,0.0
-0.2325,-0.2189,-0.7808,0.0,0.0
0.7107,-0.391,-0.3196,0.4304115088658415,0.0247130576766076
0.7867,0.0296,-0.2014,0.0,0.0
-0.7209,-0.2026,0.6177,0.0,0.0
0.2996,0.168,-0.4602,0.36985613917698235,0.021236133122028527
-0.2254,0.0095,-0.5205,0.2408832385413182,0.01383086010661288
-0.0826,0.0121,-0.0619,0.0,0.0
0.3735,-0.2287,-0.6332,0.0,0.0
-0.3721,-0.1726,0.5697,0.0,0.0
-0.1926,0.0654,0.0007,0.0,0.0
-0.5227,-0.2026,0.4973,0.0,0.0
-0.1723,-0.4026,-0.5239,0.0,0.0
-0.7892,-0.2297,0.5118,0.0,0.0
-0.4097,-0.2026,0.2057,0.0,0.0
-0.5156,-0.1726,-0.0552,2.1957176313148214,0.12607213177736157
-0.4686,-0.4026,-0.2192,0.0,0.0
0.032,-0.4026,-0.0597,0.0,0.0
-0.391,-0.4026,-0.1489,0.0,0.0
0.1055,0.0405,-0.0286,0.0,0.0
0.0788,0.0135,-0.4025,0.0,0.0
-0.0272,-0.052,-0.2923,0.0,0.0
-0.4285,0.0369,-0.0364,0.0,0.0
-0.1435,-0.4026,-0.2519,0.0,0.0
-0.4805,-0.2026,0.7096,0.0,0.0
0.1718,-0.0198,-0.0992,0.0,0.0
-0.2892,-0.198,0.8629,10.029106724657078,0.5758440186332421
-0.607,-0.1726,0.4012,0.2408832385413182,0.01383086010661288
0.0484,-0.3464,-0.672,0.0,0.0
-0.7891,-0.267,-0.5818,0.0,0.0
0.4818,0.0369,-0.3322,0.0,0.0
-0.7108,-0.0156,-0.3832,0.0,0.0
-0.1668,-0.4026,-0.2762,0.0,0.0
-0.3895,-0.1726,0.7089,0.0,0.0
-0.1875,-0.1219,-0.5079,0.0,0.0
-0.6396,-0.4026,0.2696,0.0,0.0
0.3698,-0.145,-0.535,0.0,0.0
-0.0191,0.0688,-0.3952,0.0,0.0
-0.586,-0.4026,0.6112,0.0,0.0
0.114,-0.4026,-0.3091,0.0,0.0
0.7518,0.2709,-0.3395,0.0,0.0
-0.3453,-0.1726,0.5731,0.48912679826028777,0.028084329827594488
0.23,0.1844,-0.441,0.0,0.0
0.3222,0.3599,-0.2351,0.0,0.0
0.0692,-0.0929,-0.6509,0.0,0.0
-0.2879,-0.177,-0.6189,0.0,0.0
-0.5195,-0.2026,0.5653,0.240214118434259,0.013792441050761179
0.6365,0.3819,-0.2092,0.7340247574439613,0.04214570426931759
-0.6341,-0.4026,0.563,0.0,0.0
0.3594,0.0648,-0.3918,0.0,0.0
-0.1854,-0.1662,-0.6061,0.0,0.0
-0.5044,0.1403,-0.1908,0.0,0.0
-0.5806,-0.1726,0.6092,0.0,0.0
-0.7721,-0.3126,0.9091,0.0,0.0
-0.5129,0.0134,-0.3481,0.0,0.0
-0.076,-0.1278,-0.5648,0.0,0.0
-0.5359,-0.4026,0.7726,0.0,0.0
-0.4514,-0.1726,0.707,0.0,0.0
0.5859,0.0389,-0.0304,0.0,0.0
-0.435,-0.4026,0.1688,0.0,0.0
-0.233,-0.0298,-0.4461,0.0,0.0
-0.3132,-0.4026,-0.1915,0.0,0.0
0.5295,-0.2466,-0.3224,5.733522917363668,0.32920328482927536
0.1554,0.2887,-0.0866,0.0,0.0
0.3732,-0.4026,-0.326,0.0,0.0
0.5358,-0.4026,-0.5876,0.0,0.0
-0.3835,-0.3064,0.9091,0.30478420876547346,0.017499879940450463
0.5295,-0.206,-0.2848,3.5535296085647383,0.2040340008644288
-0.2848,-0.4026,-0.2449,0.0,0.0
0.44,-0.2033,-0.6034,0.0,0.0
0.015,-0.0823,-0.5125,0.0,0.0
-0.4522,-0.2559,-0.6652,0.0,0.0
0.0191,-0.4026,-0.3175,0.0,0.0
0.381,-0.1327,-0.2234,0.0,0.0
-0.7054,-0.4026,-0.2889,0.0,0.0
-0.1944,0.0624,-0.0028,0.0,0.0
0.772,0.3425,-0.2554,1.3544663767146206,0.07776977380780868
-0.086,-0.4026,-0.1222,0.0,0.0
0.0786,0.0182,-0.4752,0.3671796587487455,0.021082456898621718
0.0802,0.2265,-0.3915,0.0,0.0
0.458,0.0369,-0.0622,0.0,0.0
-0.3047,-0.1043,-0.7819,0.0,0.0
-0.1361,0.0369,-0.1829,0.0,0.0
0.0622,-0.0502,-0.4998,0.0,0.0
-0.6472,-0.3836,-0.6402,0.0,0.0
0.4635,0.1477,0.0336,1.6087320173971231,0.09236901503145561
-0.2141,-0.0458,-0.4649,0.0,0.0
0.2335,0.1864,-0.4386,0.0,0.0
-0.5369,-0.2026,0.5929,0.0,0.0
0.0516,-0.1196,-0.2164,0.0,0.0
-0.7446,-0.4026,-0.1388,0.0,0.0
0.6728,0.1159,-0.4353,0.0,0.0
-0.1405,0.0147,-0.0588,0.0,0.0
-0.3,-0.3919,-0.6332,0.0,0.0
-0.3089,-0.1726,0.4697,4.893275342924056,0.2809585554435
-0.7892,-0.3082,0.0179,0.0,0.0
0.3204,0.2139,-0.0228,0.0,0.0
-0.4873,-0.0822,-0.4613,0.0,0.0
-0.7892,-0.2419,0.6776,0.0,0.0
0.6344,-0.0014,-0.3353,0.0,0.0
0.0728,0.1693,0.0151,2.574606891937103,0.14782692215338808
-0.5406,-0.2026,0.7866,0.0,0.0
-0.3838,-0.3173,-0.6968,0.0,0.0
-0.1139,0.1954,-0.0071,0.0,0.0
0.4644,0.2876,-0.0856,0.0,0.0
-0.5328,-0.0636,-0.2824,0.0,0.0
-0.3418,-0.0539,-0.5375,0.0,0.0
0.7498,-0.1845,-0.5813,0.0,0.0
-0.4294,-0.2587,-0.7147,0.0,0.0
0.3378,0.0369,-0.315,0.0,0.0
0.0466,-0.0829,-0.8966,0.0,0.0
0.0054,-0.1039,-0.8787,0.0,0.0
0.5999,0.0623,-0.3896,0.0,0.0
-0.5107,-0.4026,-0.1833,0.0,0.0
-0.0612,-0.4026,-0.1818,0.0,0.0
0.4042,-0.2386,-0.1332,0.0,0.0
-0.0693,-0.0151,-0.6493,0.23954499832719978,0.013754021994909476
-0.0247,-0.341,-0.046,0.0,0.0
-0.3492,0.3837,-0.2071,0.0,0.0
-0.4218,-0.2423,0.9091,0.0,0.0
0.1172,0.0369,-0.2563,0.0,0.0
-0.0541,-0.2294,-0.6803,0.0,0.0
-0.7892,-0.2712,-0.2826,0.0,0.0
-0.6081,-0.0037,-0.3692,0.0,0.0
-0.3287,-0.2207,-0.6238,0.0,0.0
-0.4403,-0.1726,0.1532,0.0,0.0
-0.5888,-0.4026,0.5142,0.0,0.0
-0.2951,-0.4026,0.6157,0.0,0.0
0.3268,0.2722,-0.3379,0.0,0.0
0.3474,0.1415,0.0389,1.4800936768149886,0.08498295154396582
-0.7892,-0.3524,0.1315,0.0,0.0
-0.3418,-0.0432,-0.7266,0.0,0.0
-0.1183,0.0223,-0.3849,0.0,0.0
0.3439,-0.4026,-0.5606,0.0,0.0
-0.4982,-0.4026,-0.2203,0.0,0.0
-0.0689,0.1458,-0.4609,0.0,0.0
0.7263,-0.0704,-0.4937,3.0429909668785555,0.17472026124957982
-0.1794,-0.0003,-0.0764,0.0,0.0
-0.0611,-0.2792,-0.6924,0.0,0.0
0.573,0.3499,-0.1387,0.0,0.0
-0.1069,-0.0593,-0.8799,0.0,0.0
0.5923,0.4012,-0.1824,0.730010036801606,0.04191518993420737
-0.2204,-0.0057,-0.0827,0.0,0.0
-0.4796,-0.4026,-0.049,0.0,0.0
-0.014,0.0161,-0.4861,0.0,0.0
-0.5707,-0.4026,0.8317,0.0,0.0
-0.3946,-0.4026,-0.179,0.0,0.0
-0.3417,-0.0404,-0.7665,0.0,0.0
0.7866,0.1023,-0.025,2.4732351957176317,0.14200643519185516
-0.5043,-0.0788,-0.2681,0.0,0.0
0.1582,0.0809,0.0189,0.0,0.0
0.2529,0.1145,0.0583,0.48979591836734704,0.02812274888344619
0.5295,-0.202,-0.4041,2.09852793576447,0.12049176391490181
0.0611,0.0069,-0.4185,0.0,0.0
0.0285,-0.4026,-0.3522,0.0,0.0
0.7867,-0.04,-0.2633,8.688357310137171,0.4988618354703933
-0.2892,-0.2863,0.3345,0.0,0.0
0.3196,0.0349,-0.3663,0.0,0.0
0.3525,0.3158,-0.2868,0.0,0.0
-0.4434,0.0037,-0.3605,0.0,0.0
0.7017,0.2207,-0.0286,4.398293743727,0.2525380588772031
0.3585,-0.1103,-0.5405,0.0,0.0
-0.7892,-0.3791,-0.0305,0.0,0.0
-0.3393,-0.2503,-0.754,0.0,0.0
-0.4122,-0.2026,0.6158,0.0,0.0
-0.1734,-0.4026,-0.3056,0.0,0.0
0.5164,0.3904,-0.1992,0.4887922382067582,0.02806512029966864
0.6498,0.1896,-0.0021,3.0573770491803285,0.1755462709503914
-0.2892,-0.3939,0.2212,0.0,0.0
-0.6774,-0.0866,-0.4665,0.8650050184008031,0.04966623445228834
-0.2624,0.0384,-0.374,0.0,0.0
0.5181,0.0774,-0.4025,0.0,0.0
-0.203,-0.0296,-0.7246,0.0,0.0
0.4316,0.0369,-0.2456,0.0,0.0
-0.2759,-0.0575,-0.5102,0.0,0.0
-0.5369,-0.4026,0.4736,0.0,0.0
-0.2892,-0.3975,0.1156,0.0,0.0
0.4179,0.0369,-0.2674,0.0,0.0
-0.7891,-0.3159,-0.5828,0.0,0.0
-0.7468,-0.4026,0.1029,0.0,0.0
-0.2768,0.0369,-0.1762,0.0,0.0
-0.7892,-0.305,0.196,0.0,0.0
-0.1047,-0.2775,-0.7307,0.0,0.0
0.7262,-0.007,-0.4193,2.919371027099365,0.16762234068097778
0.2225,-0.169,-0.5632,0.0,0.0
0.0395,-0.0753,-0.5356,0.0,0.0
-0.2267,-0.4026,-0.3959,0.0,0.0
0.5373,-0.3438,-0.3597,4.760622281699566,0.27334197762089996
-0.66,-0.2026,0.6212,0.0,0.0
-0.4207,0.2227,-0.396,0.0,0.0
-0.3733,0.0819,-0.4065,0.0,0.0
-0.4165,-0.1726,0.5257,0.0,0.0
0.0152,-0.0202,-0.4349,0.0,0.0
-0.2548,0.0874,-0.4111,0.0,0.0
-0.7511,-0.3571,-0.6628,0.0,0.0
0.2615,0.1676,-0.4606,0.0,0.0
-0.2934,0.0043,-0.406,0.0,0.0
-0.0825,-0.0567,-0.8664,0.0,0.0
-0.5104,-0.1726,-0.1033,1.2188022750083642,0.069980310233876
-0.4135,0.1926,-0.0048,0.0,0.0
-0.6721,-0.4026,0.6723,0.0,0.0
0.0285,-0.0778,-0.4562,0.0,0.0
-0.7796,-0.4026,0.8654,0.0,0.0
0.0775,-0.099,-0.8023,0.0,0.0
0.767,-0.1209,-0.2179,0.0,0.0
0.0353,-0.0882,-0.1796,0.0,0.0
0.0956,-0.0228,-0.6785,0.6047172967547677,0.034721221725976095
0.1018,0.2932,-0.3133,0.0,0.0
-0.5797,-0.1726,0.0329,0.0,0.0
-0.3402,0.0309,-0.3843,0.0,0.0
-0.4759,-0.1726,0.4654,0.8459350953496154,0.04857129136051482
0.3762,-0.1157,-0.5006,0.0,0.0
0.6933,-0.1805,-0.4982,0.0,0.0
-0.2881,-0.0256,-0.4412,0.0,0.0
-0.392,-0.2026,0.6758,0.0,0.0
-0.7811,-0.4026,0.8898,0.0,0.0
-0.1406,-0.4026,-0.3007,0.0,0.0
0.4575,0.111,-0.4312,0.0,0.0
-0.4929,-0.1726,0.5419,0.0,0.0
0.5786,-0.1128,-0.2404,0.0,0.0
-0.2375,-0.4026,-0.3428,0.0,0.0
-0.4982,-0.2026,0.4997,0.0,0.0
0.6671,-0.4026,-0.5914,0.0,0.0
0.1083,-0.3519,-0.0367,0.0,0.0
-0.5028,-0.4026,-0.0332,0.0,0.0
0.781,-0.0188,-0.3869,0.977919036467046,0.05614945012726313
0.2638,-0.1143,-0.5453,0.0,0.0
-0.3121,-0.2026,0.4044,0.5938440950150554,0.03409691206838593
-0.5064,-0.4026,-0.4439,0.0,0.0
0.4488,0.247,-0.3675,0.0,0.0
-0.3037,0.2489,-0.3652,0.0,0.0
0.3367,0.1531,-0.467,0.0,0.0
-0.4969,-0.2026,-0.1255,0.2398795583807294,0.01377323152283533
0.5296,-0.381,-0.4312,0.0,0.0
-0.7087,-0.4026,-0.17,0.0,0.0
-0.3538,-0.0755,-0.4534,0.0,0.0
0.343,-0.0334,-0.4041,0.0,0.0
-0.5985,-0.4026,0.7174,0.0,0.0
0.775,-0.2821,-0.7269,0.0,0.0
-0.0006,-0.0929,-0.7182,0.0,0.0
0.2928,-0.2908,-0.7061,0.0,0.0
-0.5242,-0.0251,-0.3943,0.0,0.0
0.468,0.2012,-0.0119,1.7423887587822018,0.10004322143783317
0.0238,-0.0958,-0.8856,0.0,0.0
-0.4593,0.259,-0.0614,0.0,0.0
0.7018,-0.2872,-0.7018,0.0,0.0
0.3339,0.3183,-0.1118,0.0,0.0
0.0757,0.1509,-0.4652,0.0,0.0
-0.2785,-0.0586,-0.8761,0.0,0.0
-0.3276,-0.1134,-0.7465,0.0,0.0
0.1304,0.0369,-0.2751,0.0,0.0
0.5856,0.1776,0.0081,2.31231180996989,0.13276665225952072
0.2983,0.0369,-0.1313,0.0,0.0
-0.1453,-0.0774,-0.8392,0.0,0.0
0.1227,0.027,-0.3596,0.0,0.0
0.2876,-0.0755,-0.4998,0.0,0.0
-0.2892,-0.2292,0.8951,0.0,0.0
-0.7892,-0.3263,0.1674,0.0,0.0
-0.5942,-0.2026,0.8564,0.0,0.0
0.6408,0.0369,-0.1067,0.0,0.0
-0.3242,-0.2026,0.845,0.0,0.0
-0.3182,-0.4026,-0.5003,0.0,0.0
-0.1034,-0.3153,-0.0679,4.0513549682167955,0.2326177784180954
0.026,-0.2782,-0.6913,0.0,0.0
-0.0221,-0.0595,-0.8548,0.0,0.0
0.0728,-0.1744,-0.1879,0.0,0.0
-0.7766,-0.1726,0.2514,0.0,0.0
-0.3395,-0.19,-0.5878,0.0,0.0
-0.1404,-0.116,-0.7366,0.0,0.0
-0.6961,-0.2026,0.556,0.0,0.0
-0.5407,-0.4026,-0.0714,0.0,0.0
0.3472,-0.0182,-0.4324,0.0,0.0
-0.1525,-0.1696,-0.5638,0.0,0.0
-0.2892,-0.2634,0.4437,0.0,0.0
-0.3455,-0.2791,-0.7293,0.0,0.0
-0.7892,-0.0971,-0.3402,0.0,0.0
-0.2524,0.0201,-0.3997,0.0,0.0
-0.128,-0.0269,-0.4489,0.0,0.0
-0.4328,0.0369,-0.1217,0.0,0.0
0.1631,-0.0793,-0.4579,1.4861157577785216,0.08532872304663114
-0.42,-0.4026,-0.1133,0.0,0.0
-0.3973,-0.4026,-0.1514,0.0,0.0
-0.3539,0.0369,-0.1269,0.0,0.0
0.0956,-0.0484,-0.5225,8.563733690197393,0.49170628631801383
-0.2023,0.0369,-0.356,0.0,0.0
0.1375,-0.2741,-0.7327,0.0,0.0
-0.1829,0.1191,-0.4382,0.0,0.0
-0.5811,-0.2675,-0.6788,0.0,0.0
-0.3435,-0.1726,0.8168,0.0,0.0
-0.0667,-0.4026,-0.3648,0.0,0.0
-0.6685,-0.4026,0.0866,0.0,0.0
-0.6638,-0.1726,0.1273,0.0,0.0
0.1113,-0.1104,-0.5406,0.0,0.0
0.161,0.0767,-0.402,0.0,0.0
-0.689,-0.1726,0.3555,0.0,0.0
-0.2892,-0.2055,0.0467,4.160254265640683,0.23887047975795994
0.3878,-0.1066,-0.5362,0.0,0.0
-0.2892,-0.3242,0.7804,0.0,0.0
-0.0304,-0.2394,-0.7632,0.0,0.0
0.3219,-0.275,-0.7329,0.0,0.0
0.1698,-0.3267,-0.6888,0.0,0.0
0.0662,-0.4026,-0.2177,0.0,0.0
0.4458,0.1733,-0.4539,0.8646704583472735,0.04964702492436249
-0.7236,-0.2449,-0.6985,0.0,0.0
0.0056,-0.2304,-0.6352,0.0,0.0
-0.658,-0.4026,0.6997,0.0,0.0
0.7046,-0.4026,-0.4385,0.0,0.0
-0.2892,-0.174,0.308,3.1823352291736366,0.1827210296306968
-0.5289,-0.2026,0.6457,0.0,0.0
-0.1271,-0.0734,-0.5023,0.0,0.0
-0.7792,-0.2472,-0.6549,0.0,0.0
0.4692,-0.4026,-0.3375,0.0,0.0
