x,y,z,SaliencyScore,NormalizedScore
-0.0579,-0.015,-0.221,0.0,0.0
0.7014,-0.215,-0.6278,0.0,0.0
-0.1338,0.185,0.497,0.0,0.0
0.1208,0.015,-0.3493,0.0,0.0
-0.0477,0.185,-0.6852,0.0,0.0
-0.1847,-0.018,-0.108,0.0,0.0
-0.0495,0.015,0.1204,0.0,0.0
-0.09,-0.185,-0.399,0.0,0.0
-0.2119,-0.015,-0.6188,0.0,0.0
-0.0361,-0.185,-0.4963,0.0,0.0
-0.1359,-0.015,0.4662,0.0,0.0
-0.1971,-0.015,-0.3162,0.0,0.0
0.2652,-0.015,0.1973,0.932774607703281,0.10958531041489908
0.3442,0.015,-0.425,0.0,0.0
-0.1735,0.1387,-0.257,0.0,0.0
-0.4739,0.015,-0.5383,0.0,0.0
0.0491,0.015,-0.4534,0.0,0.0
-0.766,-0.1096,-0.7264,0.0,0.0
0.2392,0.0958,-0.2476,0.8005527817403708,0.09405147220563742
0.2464,0.015,0.1855,3.3479850213980034,0.39333186688872834
0.1785,0.185,-0.2295,0.0,0.0
0.3334,0.015,0.4942,2.513819543509273,0.2953314688537641
-0.7579,-0.185,-0.6222,0.0,0.0
-0.7784,-0.0961,-0.3978,0.0,0.0
-0.0578,0.215,-0.5826,0.0,0.0
0.662,-0.185,-0.3942,0.0,0.0
0.196,0.185,-0.2888,0.0,0.0
-0.0771,0.1877,0.4005,0.0,0.0
0.2531,-0.015,-0.3186,0.0,0.0
0.0976,0.015,0.0892,0.0,0.0
0.1955,0.015,-0.2925,0.0,0.0
-0.5832,-0.215,-0.7183,0.0,0.0
0.2891,0.015,-0.6893,0.0,0.0
0.2161,0.215,-0.1887,0.0,0.0
-0.7336,-0.015,-0.2266,0.0,0.0
-0.1219,0.015,-0.5777,0.0,0.0
-0.1178,-0.185,-0.1376,0.0,0.0
-0.1681,0.185,-0.6259,0.0,0.0
0.0247,0.185,0.2313,0.0,0.0
0.0428,-0.185,-0.678,0.0,0.0
-0.3389,-0.185,-0.1384,0.0,0.0
-0.0775,0.185,0.2113,0.0,0.0
-0.1096,0.015,-0.6386,0.0,0.0
0.1919,0.215,0.7114,0.0,0.0
-0.0811,0.185,0.3271,0.0,0.0
0.3489,0.2123,0.2914,0.40468972895863053,0.047544229016748894
-0.5007,-0.215,-0.1981,0.0,0.0
-0.0696,0.1213,-0.7025,0.0,0.0
0.081,0.015,-0.56,0.0,0.0
0.2296,-0.1637,-0.7265,0.0,0.0
0.2429,0.015,-0.0916,2.453013552068474,0.28818778870628164
-0.5119,0.015,-0.142,0.0,0.0
0.4971,-0.185,-0.097,0.0,0.0
0.0002,0.0656,-0.7265,0.0,0.0
-0.0876,0.185,0.5272,0.0,0.0
0.0058,0.215,0.2556,0.0,0.0
-0.7784,-0.0069,-0.2686,0.0,0.0
-0.1009,-0.015,0.5603,0.0,0.0
0.7711,-0.015,-0.6259,0.0,0.0
0.0583,0.2094,0.2919,0.5264800285306706,0.0618525385203574
0.6357,-0.215,-0.6549,0.0,0.0
0.3392,0.215,-0.3305,0.0,0.0
-0.3642,-0.185,-0.5034,0.0,0.0
-0.7096,-0.015,-0.5238,0.0,0.0
-0.5638,0.015,-0.1162,0.0,0.0
0.1736,-0.215,-0.0206,0.0,0.0
0.3084,-0.015,-0.0963,2.905670470756063,0.34136735484817066
0.0587,-0.015,-0.7177,0.0,0.0
0.4894,0.015,-0.6695,0.0,0.0
0.595,-0.185,-0.3152,0.0,0.0
0.0658,0.015,-0.5806,0.0,0.0
0.3086,0.185,0.329,0.0,0.0
0.5715,-0.215,-0.4954,0.0,0.0
0.8023,-0.185,-0.2965,0.0,0.0
0.0621,0.185,-0.4602,0.0,0.0
-0.2092,-0.215,-0.3281,0.0,0.0
-0.5392,-0.215,-0.2639,0.3405848787446505,0.04001298850935906
0.0275,0.015,-0.2564,0.0,0.0
0.4529,-0.215,-0.6746,0.0,0.0
0.3487,0.1972,-0.0917,0.0,0.0
0.1681,-0.185,-0.2929,0.0,0.0
-0.0134,0.015,-0.145,0.0,0.0
0.7423,-0.185,-0.5163,0.0,0.0
0.1571,0.015,0.2658,0.7926176890156919,0.09311923242099529
-0.0508,0.015,-0.5193,0.0,0.0
0.2747,-0.185,-0.302,0.0,0.0
-0.4182,-0.215,-0.3419,0.0,0.0
-0.2201,-0.215,-0.1426,0.0,0.0
-0.4589,-0.0733,-0.7264,0.0,0.0
-0.798,-0.215,-0.2705,0.0,0.0
0.3214,0.185,0.5687,0.0,0.0
0.3065,-0.215,-0.4,0.0,0.0
0.0856,0.215,-0.2025,0.0,0.0
0.1467,-0.015,-0.4992,0.0,0.0
0.0236,0.2066,-0.7265,0.0,0.0
-0.1419,0.185,0.2564,0.0,0.0
-0.7784,-0.0985,-0.0387,0.0,0.0
-0.1374,0.215,0.2497,0.0,0.0
-0.0465,0.015,-0.5134,0.0,0.0
-0.1045,-0.015,-0.5242,0.0,0.0
-0.6153,-0.015,-0.647,0.0,0.0
0.179,-0.015,0.6314,0.0,0.0
-0.6523,0.015,-0.3495,0.0,0.0
0.1516,0.185,-0.6658,0.0,0.0
-0.1516,0.215,0.6904,0.8670649072753209,0.10186552702971645
-0.4678,-0.185,-0.3584,0.0,0.0
0.2979,-0.015,-0.4708,0.0,0.0
0.7668,-0.015,-0.4141,0.0,0.0
0.0724,0.185,-0.472,0.0,0.0
-0.1633,0.015,-0.1891,0.0,0.0
0.1595,0.185,-0.3302,0.0,0.0
0.2735,-0.015,0.5796,0.0,0.0
0.2393,0.0169,0.2546,3.0547432239657635,0.3588808932742566
0.3307,-0.185,-0.3209,0.0,0.0
-0.5322,-0.185,-0.6418,0.0,0.0
0.1092,-0.185,-0.4898,0.0,0.0
-0.4683,-0.1852,-0.0148,0.0,0.0
0.3603,-0.215,-0.3595,0.0,0.0
0.2496,0.185,0.12,0.0,0.0
0.0895,0.185,-0.411,0.0,0.0
-0.5359,-0.215,-0.037,0.0,0.0
-0.2537,0.015,-0.1874,0.0,0.0
-0.6236,-0.215,-0.6309,0.0,0.0
-0.6822,-0.215,-0.1385,0.0,0.0
0.2015,-0.015,0.3551,0.3389800285306705,0.03982444563156627
0.2376,0.0459,-0.7025,0.0,0.0
-0.1155,0.015,-0.6683,0.0,0.0
-0.7064,-0.185,-0.6983,0.0,0.0
0.347,-0.015,-0.4268,0.0,0.0
0.3418,-0.185,-0.6141,0.0,0.0
0.79,-0.215,-0.0725,0.0,0.0
-0.1018,0.015,0.188,0.0,0.0
-0.5846,-0.215,-0.4687,0.0,0.0
0.1477,0.215,0.0633,0.0,0.0
0.2999,-0.215,-0.3004,0.0,0.0
-0.7218,-0.015,-0.3867,0.0,0.0
0.0661,-0.185,-0.3082,0.0,0.0
-0.5835,-0.215,-0.0242,0.0,0.0
0.3487,0.2141,0.4288,0.8486091298145507,0.09969728393509936
0.2506,0.185,0.4033,0.0,0.0
0.5733,-0.215,-0.5069,0.0,0.0
0.1361,0.015,-0.5572,0.0,0.0
0.0721,-0.015,0.301,0.0,0.0
-0.04,0.015,-0.405,0.0,0.0
-0.1726,0.215,-0.1621,0.0,0.0
0.2746,0.215,0.0235,0.21317760342368047,0.02504477893347579
-0.701,0.015,-0.3961,0.0,0.0
-0.0704,-0.015,-0.3914,0.0,0.0
-0.8026,-0.122,-0.115,0.0,0.0
-0.7785,-0.1305,-0.5601,0.0,0.0
0.3487,0.0034,0.1406,3.021932952924394,0.35502623888382623
0.3011,-0.015,0.644,0.0,0.0
0.0896,-0.015,-0.239,0.0,0.0
-0.5627,-0.198,-0.0148,0.0,0.0
-0.173,0.2109,0.6696,0.6787624821683309,0.07974316270202893
-0.1306,0.023,0.2659,1.3943473609129815,0.16381233698897024
0.1825,-0.185,-0.0644,0.3381776034236805,0.03973017419266987
0.1791,0.015,-0.2502,0.0,0.0
-0.129,0.015,0.1784,0.0,0.0
0.3038,0.215,-0.3619,0.0,0.0
0.333,-0.015,0.1226,0.7171897289586306,0.08425771716473411
-0.0134,0.215,-0.2496,0.0,0.0
-0.46,0.015,-0.4768,0.0,0.0
0.3421,0.185,-0.2171,0.0,0.0
0.0799,0.215,-0.7217,0.0,0.0
0.1292,0.185,-0.2951,0.0,0.0
-0.2874,0.015,-0.6158,0.0,0.0
0.1345,-0.215,-0.4304,0.676355206847361,0.07946034838533975
-0.6279,-0.215,-0.1327,0.0,0.0
-0.7979,-0.015,-0.6706,0.0,0.0
0.3028,0.015,-0.2945,0.0,0.0
-0.6149,-0.185,-0.5562,0.0,0.0
0.0354,0.1753,-0.7025,0.0,0.0
-0.0627,0.215,0.2235,0.0,0.0
0.0082,-0.215,-0.1576,0.0,0.0
0.1145,-0.185,-0.3308,0.0,0.0
0.7118,-0.215,-0.224,0.0,0.0
0.042,-0.185,-0.1346,0.0,0.0
-0.0284,0.015,-0.5697,0.0,0.0
-0.1735,0.0403,0.2442,0.0,0.0
0.04,-0.0764,-0.7265,0.0,0.0
0.2183,-0.185,-0.1299,0.0,0.0
-0.5434,-0.1421,-0.108,0.4655848787446505,0.05469838376855314
0.0705,0.185,-0.3534,0.0,0.0
0.2844,-0.215,-0.0641,0.19070970042796007,0.02240517864437671
-0.6954,-0.185,-0.6468,0.0,0.0
-0.1559,-0.015,-0.6852,0.0,0.0
0.1701,0.015,-0.5209,0.0,0.0
0.0048,0.015,-0.1923,0.0,0.0
-0.4767,-0.215,-0.4045,0.0,0.0
0.1978,-0.015,-0.0601,0.5264800285306706,0.0618525385203574
-0.1736,0.16,-0.3802,0.0,0.0
0.2523,0.0654,-0.7025,0.0,0.0
-0.6083,-0.185,-0.2271,0.0,0.0
-0.0375,-0.015,0.0587,0.801355206847361,0.09414574364453383
-0.5256,-0.015,-0.6024,0.0,0.0
-0.0168,0.185,0.1806,0.0,0.0
-0.1073,0.1599,-0.7265,0.0,0.0
0.2526,0.015,-0.0467,0.3405848787446505,0.04001298850935906
0.072,0.215,-0.4073,0.0,0.0
-0.8027,-0.0902,-0.3862,0.0,0.0
-0.7784,-0.1452,-0.1679,0.0,0.0
-0.1058,0.015,-0.2854,0.0,0.0
-0.1727,0.015,0.0842,0.0,0.0
-0.3797,-0.185,-0.6966,0.0,0.0
-0.6722,-0.185,-0.1808,0.0,0.0
0.3201,0.185,0.3745,0.0,0.0
0.2557,-0.1878,-0.7289,0.0,0.0
-0.4279,-0.015,-0.2895,0.0,0.0
0.6994,-0.185,-0.1486,0.0,0.0
0.6527,0.0125,-0.0146,1.980920114122682,0.2327247588222355
0.2753,-0.015,-0.1669,0.0,0.0
-0.0115,-0.185,-0.3408,0.0,0.0
-0.5102,0.015,-0.6008,0.0,0.0
-0.1182,-0.215,-0.352,0.0,0.0
0.7805,-0.215,-0.3027,0.0,0.0
-0.7275,-0.215,-0.6669,0.0,0.0
0.3624,0.015,-0.4655,0.0,0.0
0.1075,0.015,0.0062,0.0,0.0
0.3167,0.015,0.23,0.9385699001426535,0.11026615969581752
0.0072,0.185,0.005,0.0,0.0
0.4009,-0.215,-0.3643,0.0,0.0
0.0927,0.015,-0.1314,0.0,0.0
0.4254,-0.215,-0.3946,0.0,0.0
-0.1271,0.185,0.5085,0.0,0.0
0.2322,0.015,-0.2429,2.1101997146932954,0.24791293508887705
0.1347,0.015,-0.4038,0.0,0.0
0.3393,0.015,0.4548,0.5272824536376606,0.0619468099592538
-0.7858,-0.015,-0.3623,0.0,0.0
-0.0883,0.185,-0.2033,0.0,0.0
0.2392,0.0597,-0.4034,0.18990727532097007,0.022310907205480318
-0.6754,-0.185,-0.1402,0.0,0.0
-0.345,-0.015,-0.3724,0.0,0.0
-0.0662,0.185,0.1289,0.0,0.0
-0.5466,-0.015,-0.4032,0.0,0.0
0.0996,0.215,0.7054,0.4647824536376605,0.05460411232965675
-0.03,0.215,0.2728,0.0,0.0
0.259,0.185,0.2059,0.6442582025677603,0.07568949082948392
-0.1229,0.015,-0.0232,0.0,0.0
0.2658,0.015,-0.4761,0.0,0.0
0.1712,0.015,-0.6444,0.0,0.0
0.2573,0.015,-0.3849,1.534593437945792,0.18028888958719588
-0.0845,0.185,-0.6752,0.0,0.0
-0.7128,-0.185,-0.2401,0.0,0.0
-0.2723,-0.215,-0.636,0.0,0.0
-0.7993,-0.185,-0.1118,0.0,0.0
-0.5593,-0.215,-0.3267,0.0,0.0
-0.4159,-0.185,-0.5521,0.0,0.0
-0.5098,0.015,-0.481,0.0,0.0
0.2392,0.1115,-0.5164,0.7155848787446506,0.08406917428694133
-0.1832,-0.185,-0.2985,0.0,0.0
-0.1374,-0.185,-0.4049,0.0,0.0
0.4479,0.015,-0.3562,0.0,0.0
0.0488,0.185,0.0047,0.0,0.0
-0.1617,0.185,0.0793,0.0,0.0
-0.0828,0.015,-0.3637,0.0,0.0
-0.3078,0.015,-0.1156,0.0,0.0
-0.7487,0.0056,-0.0149,0.0,0.0
-0.5139,-0.185,-0.4491,0.0,0.0
0.1953,0.015,-0.3769,0.0,0.0
-0.8027,-0.0848,-0.1452,0.0,0.0
0.2182,-0.1416,-0.7265,0.0,0.0
-0.8029,0.0104,-0.4765,0.0,0.0
-0.6501,-0.215,-0.097,0.0,0.0
0.0266,-0.1597,-0.7265,0.0,0.0
0.014,0.185,-0.2165,0.0,0.0
-0.1023,0.185,0.0972,0.0,0.0
0.1164,0.015,0.2407,0.0,0.0
0.3308,0.185,0.2452,0.0,0.0
0.2816,0.015,0.1567,0.0,0.0
0.0101,0.015,-0.0998,0.0,0.0
-0.1272,-0.1941,-0.729,0.0,0.0
0.0341,-0.185,-0.4287,0.0,0.0
-0.4987,-0.015,-0.3696,0.0,0.0
-0.6675,-0.015,-0.0543,0.0,0.0
0.1993,-0.015,-0.5515,0.0,0.0
-0.0238,0.015,-0.5549,0.0,0.0
0.2783,-0.215,-0.3816,0.0,0.0
0.3486,-0.0891,-0.3597,0.3373751783166905,0.03963590275377348
-0.003,0.215,0.7081,0.3389800285306705,0.03982444563156627
-0.715,-0.185,-0.4642,0.0,0.0
0.1494,-0.215,-0.4914,0.0,0.0
-0.5936,-0.1411,-0.7264,0.0,0.0
-0.5539,-0.015,-0.0848,0.0,0.0
-0.6796,-0.185,-0.2485,0.0,0.0
-0.2152,-0.185,-0.6759,0.0,0.0
0.5837,-0.185,-0.5101,0.0,0.0
0.1933,0.015,-0.5881,0.0,0.0
0.0272,0.015,-0.2426,0.0,0.0
0.1033,-0.015,-0.532,0.0,0.0
-0.1735,0.1168,-0.3089,0.0,0.0
-0.4238,-0.185,-0.2625,0.0,0.0
0.1697,-0.015,-0.4678,0.0,0.0
0.2408,0.215,0.6441,0.0,0.0
-0.1644,0.185,0.2602,0.3381776034236805,0.03973017419266987
0.1287,-0.015,0.1216,0.7131776034236805,0.08378635997025213
-0.1026,0.015,-0.1327,0.0,0.0
-0.0955,-0.185,-0.6868,0.0,0.0
0.1737,0.185,-0.1687,0.0,0.0
-0.4603,0.015,-0.1967,0.0,0.0
0.1581,0.015,-0.7113,0.0,0.0
-0.7237,-0.215,-0.0287,0.0,0.0
-0.3807,-0.015,-0.3435,0.0,0.0
-0.277,0.015,-0.0637,0.0,0.0
0.244,-0.015,-0.1286,0.0,0.0
-0.157,-0.185,-0.4843,0.0,0.0
-0.5405,-0.015,-0.5713,0.0,0.0
-0.0691,0.215,0.2629,0.0,0.0
-0.1736,0.1056,-0.555,0.0,0.0
0.1536,-0.015,0.2875,1.3615370898716121,0.15995768259853987
-0.7708,-0.015,-0.1984,0.0,0.0
-0.62,-0.0453,-0.7264,0.0,0.0
-0.1733,0.185,0.3417,0.0,0.0
-0.1645,0.0437,-0.7025,0.0,0.0
0.1635,0.015,-0.4931,0.0,0.0
-0.2264,-0.185,-0.1374,0.0,0.0
-0.1623,0.015,0.6976,0.0,0.0
0.3393,-0.185,-0.2524,0.19070970042796007,0.02240517864437671
-0.0105,0.015,0.1034,0.0,0.0
0.2023,0.0258,-0.7025,0.0,0.0
-0.1913,-0.0874,-0.7264,0.0,0.0
0.1177,0.185,-0.4157,0.0,0.0
0.1619,0.185,0.2605,0.18990727532097007,0.022310907205480318
-0.6408,0.015,-0.1885,0.0,0.0
-0.1381,-0.1519,-0.108,0.0,0.0
-0.264,-0.185,-0.2172,0.0,0.0
0.7179,0.015,-0.0326,0.0,0.0
0.0657,0.091,-0.7025,0.0,0.0
-0.0026,0.015,-0.4389,0.0,0.0
-0.0097,0.0006,-0.108,0.0,0.0
-0.2176,0.015,-0.0442,0.0,0.0
0.151,-0.185,-0.1047,2.891226818830243,0.33967046894803554
0.3679,0.015,-0.5934,0.0,0.0
0.171,0.015,-0.43,0.0,0.0
-0.1002,0.215,-0.5615,0.0,0.0
-0.5329,0.0127,-0.7264,0.0,0.0
0.325,-0.185,-0.2988,0.0,0.0
0.3411,-0.0019,-0.0147,8.511858059914408,1.0
-0.1013,0.015,-0.1005,0.0,0.0
0.042,-0.185,-0.3678,0.0,0.0
-0.0803,0.0241,-0.7025,0.0,0.0
-0.7784,-0.1798,-0.2039,0.0,0.0
-0.7785,-0.0821,-0.3017,0.0,0.0
0.0818,0.015,-0.4297,0.0,0.0
0.2067,0.1374,0.2659,0.0,0.0
-0.1654,-0.015,-0.6248,0.0,0.0
-0.7215,-0.1763,-0.7264,0.0,0.0
0.5494,-0.215,-0.4633,0.0,0.0
-0.0796,-0.185,-0.6448,0.0,0.0
-0.4879,0.015,-0.1876,0.0,0.0
-0.8028,-0.0656,-0.3928,0.0,0.0
0.2441,0.185,-0.5104,0.0,0.0
-0.7769,0.015,-0.121,0.0,0.0
0.7024,0.0047,-0.6682,0.0,0.0
0.2854,0.185,0.0998,0.0,0.0
-0.0972,0.215,0.4988,0.8662624821683311,0.10177125559082008
-0.1027,0.015,-0.3829,0.0,0.0
-0.7786,-0.1721,-0.6201,0.0,0.0
-0.246,0.015,-0.0237,0.0,0.0
-0.188,-0.185,-0.6404,0.0,0.0
0.2062,-0.015,-0.3315,0.0,0.0
-0.0322,-0.185,-0.16,0.0,0.0
0.1865,0.015,-0.2182,0.0,0.0
0.0354,0.185,0.1348,0.0,0.0
-0.4696,-0.215,-0.4601,0.0,0.0
0.3191,-0.185,-0.5856,0.0,0.0
0.0487,0.185,0.2605,1.8559201141226822,0.21803936356304146
-0.5496,-0.0164,-0.7264,0.0,0.0
-0.7785,-0.0201,-0.6346,0.0,0.0
-0.3837,0.015,-0.3386,0.0,0.0
-0.5699,0.015,-0.2068,0.0,0.0
0.2053,-0.015,-0.659,0.0,0.0
0.3484,-0.015,0.3932,0.861447931526391,0.1012056269574417
-0.6754,-0.015,-0.1308,0.0,0.0
-0.2754,-0.215,-0.211,0.0,0.0
0.3486,0.0148,-0.3226,1.669222539229672,0.19610554211314668
0.2392,0.0993,-0.6863,0.0,0.0
-0.082,0.015,0.1212,0.0,0.0
0.151,0.015,-0.0117,0.0,0.0
0.248,-0.015,0.5534,0.0,0.0
0.0448,0.015,-0.152,0.0,0.0
-0.6296,-0.215,-0.5644,0.0,0.0
-0.1622,0.015,-0.0605,0.0,0.0
-0.3057,-0.215,-0.7073,0.0,0.0
-0.0968,0.185,-0.4078,0.0,0.0
-0.7769,-0.185,-0.1501,0.0,0.0
-0.1735,0.1252,0.1704,0.928762482168331,0.10911395322041711
-0.1188,0.015,-0.4255,0.0,0.0
0.1549,0.0258,-0.7025,0.0,0.0
-0.4702,0.015,-0.3784,0.0,0.0
0.217,0.0494,-0.7025,0.0,0.0
0.7694,-0.2088,-0.7288,0.0,0.0
0.1899,-0.015,-0.2888,0.0,0.0
0.3509,-0.215,-0.3921,0.0,0.0
-0.3991,-0.015,-0.5403,0.0,0.0
0.177,0.185,-0.2533,0.0,0.0
-0.2472,-0.185,-0.4536,0.0,0.0
-0.7784,-0.0729,-0.2333,0.0,0.0
-0.1736,0.1837,-0.5889,0.0,0.0
-0.3604,-0.185,-0.1293,0.0,0.0
-0.0036,-0.015,-0.1289,0.0,0.0
0.3204,0.215,-0.2641,0.0,0.0
0.0921,0.185,-0.6319,0.0,0.0
0.1586,0.015,-0.5499,0.0,0.0
0.1923,0.015,-0.1703,0.0,0.0
0.3202,-0.0195,-0.1081,3.114033523537803,0.365846505148268
0.4842,-0.185,-0.6178,0.0,0.0
-0.7622,-0.215,-0.166,0.0,0.0
0.0324,-0.015,-0.6475,0.0,0.0
0.1995,0.015,-0.6066,0.0,0.0
-0.1735,0.0312,-0.3047,0.0,0.0
-0.1622,-0.015,-0.0372,0.0,0.0
-0.3656,0.015,-0.5286,0.0,0.0
-0.0132,0.185,0.1303,0.0,0.0
-0.1526,0.015,-0.1039,0.0,0.0
-0.1736,0.0928,-0.6331,0.0,0.0
-0.1474,0.015,-0.5106,0.0,0.0
0.0444,0.1669,-0.7265,0.0,0.0
-0.0043,0.015,-0.1609,0.0,0.0
-0.021,-0.015,0.4628,0.0,0.0
-0.1427,0.185,0.4951,0.0,0.0
-0.7784,0.0124,-0.3099,0.0,0.0
-0.285,-0.015,-0.6679,0.0,0.0
0.1248,0.015,-0.0736,0.0,0.0
-0.0226,0.015,0.2025,0.0,0.0
-0.1735,0.0222,-0.3042,0.0,0.0
0.0824,-0.1458,-0.7265,0.0,0.0
0.0822,-0.185,-0.1743,0.0,0.0
-0.8026,-0.0573,-0.0275,0.0,0.0
-0.4166,0.015,-0.5533,0.0,0.0
-0.4626,-0.185,-0.5323,0.0,0.0
0.3268,0.015,-0.6912,0.0,0.0
-0.6042,0.015,-0.2236,0.0,0.0
-0.0504,-0.1886,-0.7289,0.0,0.0
-0.3309,-0.215,-0.6583,0.0,0.0
-0.041,0.015,0.238,0.0,0.0
0.7944,-0.015,-0.7158,0.0,0.0
-0.3546,-0.015,-0.5415,0.0,0.0
0.6321,-0.185,-0.4837,0.0,0.0
0.1173,0.015,0.1947,0.18910485021398005,0.02221663576658392
0.1515,0.015,-0.0227,0.0,0.0
-0.7166,-0.185,-0.6671,0.0,0.0
0.2811,0.0107,-0.7289,0.0,0.0
-0.7653,-0.215,-0.6983,0.0,0.0
0.3487,0.1904,0.624,0.0,0.0
-0.2863,0.015,-0.4699,0.0,0.0
0.0581,0.0798,-0.7025,0.0,0.0
0.31,-0.185,-0.221,0.0,0.0
-0.7621,-0.185,-0.5038,0.0,0.0
0.4501,-0.185,-0.6234,0.18990727532097007,0.022310907205480318
0.1063,0.185,-0.0268,0.0,0.0
-0.085,0.015,0.2193,0.0,0.0
0.2884,-0.015,0.1519,0.3389800285306705,0.03982444563156627
-0.7225,0.015,-0.424,0.0,0.0
0.2383,-0.015,-0.3868,0.0,0.0
0.2426,0.162,-0.7265,0.0,0.0
-0.0525,0.015,-0.199,0.0,0.0
-0.6955,-0.1711,-0.7264,0.0,0.0
-0.3701,0.015,-0.1594,0.0,0.0
-0.1203,0.015,-0.682,0.0,0.0
0.769,0.015,-0.7021,0.0,0.0
-0.1354,0.215,-0.1052,0.0,0.0
0.3486,0.1925,-0.676,0.0,0.0
0.1726,0.015,-0.6076,0.0,0.0
-0.6295,0.015,-0.6526,0.0,0.0
0.0354,0.015,-0.7146,0.0,0.0
0.1991,0.122,-0.7025,0.0,0.0
-0.4917,-0.1689,-0.7264,0.0,0.0
-0.1832,-0.015,-0.4336,0.0,0.0
-0.0183,0.0428,-0.7025,0.0,0.0
-0.7412,-0.215,-0.1465,0.0,0.0
0.0146,-0.215,-0.3533,0.0,0.0
0.1958,-0.015,0.6917,0.0,0.0
-0.7309,0.015,-0.4481,0.0,0.0
0.0891,0.015,-0.1857,0.0,0.0
0.0901,0.015,0.0072,0.0,0.0
-0.7785,-0.0572,-0.3147,0.0,0.0
-0.0286,-0.185,-0.3928,0.0,0.0
-0.7232,0.015,-0.7001,0.0,0.0
0.3362,0.015,-0.2042,0.8045649072753209,0.09452282940011941
-0.7572,-0.215,-0.3098,0.0,0.0
0.1194,-0.015,-0.6422,0.0,0.0
-0.2021,-0.185,-0.7131,0.0,0.0
-0.3328,0.015,-0.3735,0.0,0.0
0.4411,-0.015,-0.0604,0.6755527817403709,0.07936607694644335
0.3486,-0.1569,-0.6505,0.0,0.0
-0.6256,-0.185,-0.192,0.0,0.0
-0.7684,-0.0449,-0.7264,0.0,0.0
0.071,0.215,0.2149,0.3397824536376605,0.03991871707046267
0.2924,0.215,-0.6414,0.0,0.0
0.5971,-0.015,-0.7208,0.0,0.0
-0.0226,0.015,-0.4095,0.0,0.0
-0.6677,-0.185,-0.109,1.2028352353780316,0.14131288690569715
-0.3077,0.015,-0.611,0.0,0.0
-0.4713,0.015,-0.1121,0.0,0.0
-0.411,-0.0818,-0.108,3.0979850213980034,0.3639610763703402
0.2624,-0.185,-0.2988,0.0,0.0
-0.0419,0.186,-0.7265,0.0,0.0
-0.3623,0.015,-0.1903,0.0,0.0
-0.3075,-0.185,-0.6852,0.0,0.0
0.3756,0.015,-0.712,0.0,0.0
-0.0371,0.015,-0.6161,0.0,0.0
0.1748,0.215,0.0091,0.3389800285306705,0.03982444563156627
-0.1353,0.1695,-0.7025,0.0,0.0
0.2732,-0.215,-0.1188,0.0,0.0
0.2302,0.015,-0.6221,0.0,0.0
-0.0917,0.015,-0.5102,0.0,0.0
0.1534,0.015,-0.6491,0.0,0.0
-0.0806,-0.004,0.7291,0.0,0.0
-0.7193,0.015,-0.415,0.0,0.0
0.3727,0.015,-0.0306,0.18910485021398005,0.02221663576658392
-0.6619,-0.185,-0.2171,0.0,0.0
0.6083,-0.185,-0.4473,0.0,0.0
-0.437,0.015,-0.1543,0.0,0.0
0.7076,-0.215,-0.4418,0.0,0.0
0.4013,0.015,-0.5494,0.0,0.0
-0.5713,0.015,-0.5747,0.0,0.0
-0.2641,0.015,-0.2502,0.0,0.0
-0.1125,0.015,0.2575,0.673947931526391,0.07917753406865057
-0.3404,-0.015,-0.5821,0.0,0.0
-0.4317,0.015,-0.2613,0.0,0.0
-0.6847,0.015,-0.3921,0.0,0.0
0.2803,0.0524,-0.7265,0.0,0.0
-0.047,0.185,-0.1517,0.0,0.0
0.269,0.185,0.4713,0.0,0.0
0.1559,0.015,-0.5886,0.0,0.0
0.3204,0.215,-0.0958,0.0,0.0
-0.755,-0.015,-0.1677,0.18910485021398005,0.02221663576658392
0.0368,0.015,-0.6396,0.0,0.0
0.2216,0.215,0.7259,0.0,0.0
-0.6456,0.015,-0.5075,0.0,0.0
-0.5757,0.015,-0.1887,0.0,0.0
-0.4205,-0.185,-0.1712,0.0,0.0
-0.3392,0.015,-0.1951,0.0,0.0
-0.3488,-0.015,-0.5637,0.0,0.0
0.5758,0.015,-0.0449,0.0,0.0
0.3747,-0.015,-0.6524,0.0,0.0
0.1715,-0.185,-0.6553,0.0,0.0
0.76,-0.185,-0.5967,0.0,0.0
-0.042,0.1434,-0.7265,0.0,0.0
-0.1884,0.015,-0.2536,0.0,0.0
-0.0885,0.215,-0.031,0.0,0.0
0.3997,-0.015,-0.032,5.288873038516405,0.6213535283704658
0.5197,-0.185,-0.6908,0.0,0.0
0.2775,-0.015,0.1025,0.18830242510699005,0.022122364327687525
-0.8022,-0.015,-0.5465,0.0,0.0
0.0733,-0.015,0.6512,0.0,0.0
0.1249,0.015,0.0939,0.0,0.0
-0.4337,0.015,-0.1492,0.0,0.0
-0.0705,0.015,-0.1107,0.0,0.0
-0.733,-0.185,-0.1279,0.0,0.0
-0.0161,-0.015,-0.1938,0.0,0.0
0.2325,-0.215,-0.3049,0.0,0.0
0.3486,-0.0442,-0.5167,0.33577032810271046,0.03944735987598069
0.2356,0.215,0.0714,0.0,0.0
0.3357,0.185,-0.5455,0.0,0.0
-0.7999,-0.215,-0.1676,0.0,0.0
-0.7976,0.015,-0.1515,0.6755527817403709,0.07936607694644335
-0.1736,0.1505,-0.6529,0.0,0.0
-0.5567,-0.0579,-0.108,0.0,0.0
-0.0178,0.015,-0.4505,0.0,0.0
-0.1566,0.215,-0.2201,0.0,0.0
0.0893,-0.185,-0.5763,0.0,0.0
-0.8027,-0.0825,-0.3187,0.0,0.0
-0.1735,0.0701,-0.2088,0.0,0.0
-0.3829,-0.0372,-0.108,5.718437945791726,0.6718201719930029
-0.6087,-0.185,-0.2565,0.0,0.0
-0.4512,-0.215,-0.1151,0.0,0.0
-0.7571,-0.185,-0.3926,0.0,0.0
0.3067,0.185,-0.1088,0.0,0.0
-0.3157,-0.015,-0.2297,0.0,0.0
0.4034,-0.015,-0.5949,0.0,0.0
-0.7376,-0.015,-0.4697,0.0,0.0
-0.1732,0.2103,0.01,0.0,0.0
-0.0844,0.015,0.5104,0.0,0.0
0.3054,-0.1144,-0.1081,3.7479493580599152,0.44032094187642074
-0.6293,0.015,-0.3473,0.0,0.0
-0.7527,-0.185,-0.2302,0.0,0.0
-0.3925,-0.1018,-0.7264,0.0,0.0
0.3711,0.015,-0.6398,0.0,0.0
-0.103,0.185,-0.5637,0.0,0.0
-0.122,-0.1067,-0.7265,0.0,0.0
0.2326,-0.185,-0.3688,0.0,0.0
0.3487,-0.0136,0.6995,0.0,0.0
0.2395,-0.015,0.2549,0.18910485021398005,0.02221663576658392
-0.0426,-0.185,-0.2771,0.0,0.0
0.5422,-0.185,-0.3364,0.0,0.0
0.6967,-0.215,-0.3846,0.0,0.0
-0.7768,0.0141,-0.0149,0.0,0.0
0.3465,0.215,0.4008,0.867867332382311,0.10195979846861285
-0.7162,-0.015,-0.3109,0.0,0.0
0.1455,0.015,0.6157,0.0,0.0
0.008,0.1115,-0.7265,0.0,0.0
-0.0762,0.015,-0.5601,0.0,0.0
0.0171,0.185,-0.2767,0.0,0.0
0.3486,-0.116,-0.4992,1.3278352353780314,0.15599828216489123
0.003,0.015,0.1562,0.0,0.0
-0.186,-0.0193,-0.7264,0.0,0.0
-0.4978,0.015,-0.4357,0.0,0.0
0.7354,-0.215,-0.603,0.0,0.0
-0.5957,0.015,-0.5862,0.0,0.0
-0.6008,0.015,-0.2336,0.0,0.0
-0.6536,0.015,-0.2698,0.0,0.0
-0.6965,0.015,-0.269,0.0,0.0
0.0534,0.215,-0.2638,0.0,0.0
-0.1703,-0.215,-0.462,0.0,0.0
-0.0846,0.185,-0.3787,0.0,0.0
-0.3827,0.015,-0.0957,0.0,0.0
0.2721,0.215,-0.2678,0.0,0.0
0.685,-0.215,-0.522,0.0,0.0
0.2072,0.015,-0.0483,0.0,0.0
-0.158,0.215,0.0863,0.26613766048502147,0.03126669390063791
-0.6115,-0.185,-0.6471,0.0,0.0
-0.3427,0.015,-0.6895,0.0,0.0
0.0957,0.015,-0.0177,0.0,0.0
-0.0447,0.185,-0.546,0.0,0.0
0.2999,0.185,0.4263,0.18910485021398005,0.02221663576658392
-0.7786,-0.1315,-0.6438,0.0,0.0
-0.3794,-0.215,-0.5827,0.0,0.0
0.0401,0.015,-0.6943,0.0,0.0
-0.3436,-0.1676,-0.7264,0.0,0.0
0.2403,-0.215,-0.7071,0.0,0.0
-0.1375,-0.215,-0.4449,0.0,0.0
-0.1735,0.0258,-0.2577,0.0,0.0
-0.6195,-0.185,-0.4002,0.0,0.0
-0.0406,-0.015,-0.654,0.0,0.0
-0.1915,-0.215,-0.624,0.0,0.0
0.3054,-0.015,-0.0957,2.905670470756063,0.34136735484817066
0.2577,0.215,-0.6267,0.0,0.0
0.5091,-0.185,-0.6097,0.0,0.0
-0.5665,0.015,-0.6082,0.0,0.0
-0.1502,0.015,-0.4891,0.0,0.0
-0.1422,-0.015,-0.5382,0.0,0.0
0.0894,0.1628,0.2659,0.9327746077032811,0.10958531041489909
-0.336,0.015,-0.4833,0.0,0.0
-0.3054,-0.185,-0.3922,0.0,0.0
-0.5153,-0.185,-0.2058,0.0,0.0
0.2886,0.185,0.0491,0.0,0.0
-0.0048,0.185,-0.2904,0.0,0.0
0.0336,-0.215,-0.4548,1.9361626248216834,0.227466507452681
0.1045,-0.215,-0.3472,0.0,0.0
0.3821,0.015,-0.5855,0.0,0.0
-0.1024,0.015,-0.2801,0.0,0.0
0.301,0.015,-0.5615,0.0,0.0
-0.1089,-0.0089,-0.108,0.46398002853067044,0.05450984089076035
-0.0472,-0.215,-0.3034,0.0,0.0
-0.168,-0.215,-0.2188,0.0,0.0
0.3961,-0.015,-0.451,0.0,0.0
-0.3939,-0.185,-0.411,0.0,0.0
0.0091,0.015,-0.2764,0.0,0.0
-0.3633,-0.015,-0.0717,0.0,0.0
0.1194,-0.185,-0.075,0.0,0.0
-0.6878,-0.185,-0.4381,0.0,0.0
0.176,0.015,-0.1052,0.0,0.0
-0.0976,0.185,-0.2875,0.0,0.0
0.105,-0.185,-0.5448,0.0,0.0
-0.1907,-0.185,-0.536,0.0,0.0
-0.7785,-0.1426,-0.6672,0.0,0.0
-0.0404,0.215,0.7191,0.6715406562054209,0.07889471975196138
-0.7784,-0.066,-0.1637,0.0,0.0
-0.7786,-0.0874,-0.5623,0.0,0.0
-0.0337,0.185,-0.4383,0.0,0.0
-0.4944,-0.215,-0.5868,0.0,0.0
0.1765,0.015,0.2536,0.8983594864479316,0.1055421131466759
-0.0769,-0.0113,-0.0147,0.0,0.0
-0.3802,-0.215,-0.6859,0.0,0.0
0.3489,0.2051,0.6122,0.0,0.0
-0.5908,-0.215,-0.0933,0.0,0.0
0.01,0.015,-0.3764,0.0,0.0
-0.8026,-0.0504,-0.056,0.0,0.0
0.3337,0.185,0.2932,0.5577746077032811,0.06552912463731683
0.2977,-0.185,-0.284,0.0,0.0
-0.1352,-0.185,-0.4153,0.0,0.0
-0.0869,0.015,-0.0547,0.0,0.0
-0.7784,-0.1494,-0.0296,0.0,0.0
0.0376,-0.185,-0.4302,0.0,0.0
-0.3407,-0.185,-0.5483,0.0,0.0
0.3117,-0.215,-0.1487,0.0,0.0
-0.0842,0.215,-0.41,0.0,0.0
0.3486,-0.0153,-0.5348,0.0,0.0
0.3398,-0.185,-0.1453,0.18910485021398005,0.02221663576658392
-0.7547,-0.015,-0.462,0.0,0.0
0.2126,-0.185,-0.596,0.0,0.0
-0.5826,-0.015,-0.5206,0.0,0.0
0.1664,0.015,0.1197,0.0,0.0
0.2859,-0.215,-0.2614,0.3397824536376605,0.03991871707046267
-0.0643,0.1796,-0.7265,0.0,0.0
0.0024,-0.185,-0.4783,0.0,0.0
-0.2201,0.015,-0.669,0.0,0.0
-0.5982,-0.1555,-0.7264,0.0,0.0
0.1353,0.015,-0.4963,0.0,0.0
0.2667,-0.215,-0.6337,0.0,0.0
0.1521,0.215,-0.5002,0.0,0.0
-0.455,-0.027,-0.108,0.0,0.0
0.6664,0.015,-0.0437,0.8005527817403709,0.09405147220563743
-0.7305,-0.015,-0.1984,0.0,0.0
-0.4213,0.015,-0.634,0.0,0.0
-0.3707,0.015,-0.2443,0.7139800285306706,0.08388063140914853
-0.0894,0.015,-0.6225,0.0,0.0
0.128,0.185,-0.6095,0.0,0.0
-0.8028,-0.1985,-0.0626,0.0,0.0
-0.1079,0.185,0.2428,0.18830242510699005,0.022122364327687525
-0.1735,0.0535,-0.0297,0.3405848787446505,0.04001298850935906
0.3208,-0.215,-0.1555,0.0,0.0
-0.0885,0.015,0.1018,0.0,0.0
0.0227,-0.215,-0.1017,0.0,0.0
0.0723,-0.185,-0.5159,0.0,0.0
0.1017,0.185,-0.4504,0.0,0.0
-0.1607,0.015,0.0878,0.0,0.0
0.3421,-0.0362,-0.7265,0.0,0.0
0.2602,0.215,-0.658,0.0,0.0
0.6187,-0.185,-0.0581,0.0,0.0
-0.5257,-0.185,-0.3371,0.0,0.0
-0.7786,-0.1632,-0.5464,0.0,0.0
-0.1735,0.1208,-0.1067,0.0,0.0
-0.0373,0.015,-0.059,0.0,0.0
-0.1343,0.015,-0.5475,0.0,0.0
-0.4374,-0.015,-0.3024,0.0,0.0
0.45,-0.0009,-0.5054,0.0,0.0
0.2131,0.1885,0.6913,0.0,0.0
0.2865,-0.185,-0.3103,0.0,0.0
-0.7044,0.0115,-0.0149,0.0,0.0
0.1531,-0.015,-0.1228,0.0,0.0
-0.5349,-0.215,-0.237,0.3405848787446505,0.04001298850935906
0.027,0.185,0.1517,0.0,0.0
-0.411,-0.1433,-0.7264,0.0,0.0
0.2161,0.215,-0.3801,0.0,0.0
0.2743,0.185,-0.5329,0.0,0.0
-0.3889,-0.015,-0.4813,0.0,0.0
0.4495,-0.015,-0.4082,0.0,0.0
-0.0712,0.1761,-0.7025,0.0,0.0
-0.4813,-0.215,-0.0283,0.0,0.0
0.2864,0.185,-0.3741,0.0,0.0
-0.279,-0.185,-0.1632,0.0,0.0
-0.7347,-0.185,-0.3246,0.0,0.0
-0.1631,0.185,0.6774,0.0,0.0
0.2482,-0.015,-0.6974,0.0,0.0
-0.0669,0.0494,-0.7025,0.0,0.0
0.5083,-0.215,-0.1513,0.0,0.0
0.183,0.015,-0.4279,0.0,0.0
-0.151,0.215,0.6974,0.3405848787446505,0.04001298850935906
0.1366,0.185,-0.2563,0.0,0.0
0.1538,0.015,-0.5064,0.0,0.0
-0.4991,-0.215,-0.7168,0.0,0.0
0.2049,0.015,-0.2482,0.0,0.0
-0.0275,-0.015,0.7263,0.0,0.0
-0.5283,-0.185,-0.5359,0.0,0.0
-0.118,-0.015,0.4798,0.0,0.0
-0.1559,-0.015,-0.4698,0.0,0.0
-0.5252,-0.215,-0.3802,0.0,0.0
-0.1735,0.1263,0.2407,0.18830242510699005,0.022122364327687525
-0.6768,-0.185,-0.3837,0.0,0.0
-0.8027,-0.1438,-0.2463,0.0,0.0
0.1644,-0.097,-0.7265,0.0,0.0
-0.5952,-0.0018,-0.7264,0.0,0.0
-0.1788,0.015,-0.4298,0.0,0.0
-0.637,-0.185,-0.5863,0.0,0.0
-0.3627,-0.215,-0.4407,0.0,0.0
-0.0937,0.015,-0.5706,0.0,0.0
-0.3313,-0.185,-0.3966,0.0,0.0
-0.3953,-0.185,-0.4916,0.0,0.0
-0.5826,-0.215,-0.4667,0.0,0.0
-0.8027,-0.1581,-0.2293,0.0,0.0
-0.4084,-0.215,-0.4517,0.0,0.0
0.2436,0.215,-0.3088,0.0,0.0
-0.0798,0.015,-0.2512,0.0,0.0
0.2392,0.0715,-0.2814,0.0,0.0
0.2575,0.185,0.3174,0.18830242510699005,0.022122364327687525
0.7932,-0.215,-0.3008,0.0,0.0
-0.7784,-0.1341,-0.0851,0.0,0.0
-0.0193,0.215,-0.3629,0.0,0.0
-0.0156,0.015,-0.0392,0.0,0.0
-0.0997,0.185,0.1606,0.0,0.0
0.3216,-0.215,-0.1861,0.0,0.0
0.3936,-0.185,-0.2849,0.0,0.0
-0.8027,-0.0321,-0.3636,0.0,0.0
0.3796,-0.015,-0.0373,3.9610378031383737,0.4653552462055746
0.6186,0.015,-0.0465,0.0,0.0
-0.0774,0.015,0.0662,0.0,0.0
-0.0819,-0.015,0.382,0.0,0.0
0.1201,0.015,0.4006,1.114657631954351,0.13095350323141544
0.0183,-0.215,-0.5362,0.0,0.0
0.1696,0.015,-0.4284,0.0,0.0
-0.1735,0.0653,-0.2643,0.0,0.0
0.0149,0.1626,-0.7025,0.0,0.0
0.3479,0.015,-0.2831,0.3790121255349501,0.04452754297206424
-0.1734,0.1909,-0.1069,0.0,0.0
-0.0326,0.015,-0.5072,0.0,0.0
0.0878,0.015,-0.3621,0.0,0.0
-0.4129,-0.015,-0.6652,0.0,0.0
0.3486,0.0085,-0.3362,1.2052425106990015,0.14159570122238632
0.5872,-0.215,-0.4148,0.0,0.0
-0.1487,0.015,0.5631,0.0,0.0
-0.2907,-0.185,-0.5278,0.0,0.0
-0.6861,-0.185,-0.1226,0.0,0.0
-0.1251,-0.015,-0.5353,0.0,0.0
-0.5699,0.015,-0.2155,0.0,0.0
-0.0026,-0.185,-0.3674,0.0,0.0
0.135,-0.015,-0.55,0.0,0.0
0.0323,0.1768,-0.7265,0.0,0.0
0.6905,0.0084,-0.0565,0.0,0.0
-0.0363,-0.1973,-0.7289,0.0,0.0
-0.0469,0.015,-0.6513,0.0,0.0
-0.4909,-0.185,-0.1356,0.0,0.0
-0.4843,-0.015,-0.519,0.0,0.0
0.0652,0.0879,-0.7025,0.0,0.0
-0.0296,0.015,-0.1644,0.0,0.0
-0.1735,0.1087,0.1824,1.602710413694722,0.18829148728906767
0.2189,0.015,-0.1603,0.0,0.0
0.3466,0.015,0.1673,1.5394079885877319,0.18085451822057422
-0.4868,-0.185,-0.239,0.0,0.0
0.0997,-0.185,-0.2412,0.0,0.0
-0.506,-0.215,-0.6133,0.0,0.0
0.0295,-0.015,-0.2679,0.0,0.0
-0.7165,-0.185,-0.4065,0.0,0.0
0.3207,-0.015,0.2758,0.3782097004279601,0.04443327153316784
-0.2899,-0.0117,-0.729,0.0,0.0
0.3222,-0.015,-0.0756,0.5264800285306706,0.0618525385203574
-0.1431,0.185,0.6416,0.0,0.0
0.4761,-0.215,-0.2184,0.0,0.0
0.614,-0.215,-0.0863,0.0,0.0
-0.4711,-0.185,-0.0355,0.0,0.0
0.7127,-0.185,-0.2974,0.0,0.0
-0.1199,0.215,0.4416,0.18910485021398005,0.02221663576658392
0.4398,-0.215,-0.3958,0.0,0.0
-0.1566,0.015,-0.1911,0.0,0.0
0.3862,-0.185,-0.3197,0.0,0.0
0.1172,0.015,0.2428,0.0,0.0
-0.1251,-0.185,-0.2666,0.0,0.0
0.422,-0.215,-0.2353,0.19070970042796007,0.02240517864437671
-0.0029,-0.215,-0.2248,0.0,0.0
-0.1325,-0.015,0.2122,0.0,0.0
-0.1241,0.015,-0.7063,0.0,0.0
-0.1,-0.015,0.1357,0.0,0.0
0.3392,0.185,0.1703,0.0,0.0
0.0945,-0.015,-0.1838,0.0,0.0
0.0605,0.015,0.1058,0.0,0.0
-0.1578,0.185,0.029,0.0,0.0
0.6174,-0.2012,-0.0146,0.0,0.0
0.1616,0.015,0.1702,0.0,0.0
-0.164,-0.185,-0.2034,0.0,0.0
-0.2666,-0.185,-0.2497,0.0,0.0
0.3359,0.015,0.4004,0.5272824536376606,0.0619468099592538
0.3486,-0.0945,-0.3474,0.549750356633381,0.06458641024835289
0.2875,-0.185,-0.3851,0.0,0.0
0.1784,0.145,0.2659,0.5272824536376606,0.0619468099592538
-0.5144,-0.015,-0.3773,0.0,0.0
-0.1808,-0.015,-0.1856,0.0,0.0
-0.4071,0.015,-0.5531,0.0,0.0
-0.5794,-0.015,-0.473,0.0,0.0
0.1406,0.015,0.2469,0.0,0.0
-0.79,-0.215,-0.6942,0.0,0.0
-0.4392,-0.185,-0.5326,0.0,0.0
0.707,-0.215,-0.1495,0.0,0.0
-0.08,0.185,0.665,0.0,0.0
-0.1153,-0.015,0.0335,0.0,0.0
0.158,-0.015,0.7136,0.0,0.0
0.0186,0.015,-0.6519,0.0,0.0
0.2309,0.185,-0.0647,4.069186875891584,0.47806094124794446
-0.4436,-0.185,-0.6146,0.0,0.0
0.0291,0.185,0.0319,0.0,0.0
-0.4566,-0.185,-0.2332,0.0,0.0
-0.1647,0.215,-0.0497,0.0,0.0
0.1277,-0.185,-0.4075,0.0,0.0
-0.1702,0.015,-0.2146,0.0,0.0
0.1751,-0.0503,-0.7265,0.0,0.0
0.0762,0.015,-0.5593,0.0,0.0
0.2393,0.1095,0.091,0.8638552068473611,0.10148844127413088
0.6706,-0.185,-0.3446,0.0,0.0
-0.3278,0.015,-0.0584,0.0,0.0
-0.3824,-0.215,-0.4075,0.0,0.0
0.2914,0.185,-0.6127,0.0,0.0
0.0561,0.015,0.413,0.0,0.0
0.057,-0.015,0.4542,0.0,0.0
0.7665,-0.0062,-0.466,0.0,0.0
0.0046,-0.1646,-0.7265,0.0,0.0
-0.8004,0.015,-0.2879,0.0,0.0
0.6809,-0.215,-0.6251,0.0,0.0
-0.4979,0.015,-0.6725,0.0,0.0
0.0457,0.0374,-0.7025,0.0,0.0
-0.0941,0.015,0.4672,0.0,0.0
0.4953,-0.185,-0.5715,0.0,0.0
0.3333,-0.185,-0.346,0.0,0.0
0.1901,0.0312,0.2659,1.2349322396576319,0.14508374446155295
-0.3854,-0.215,-0.1681,0.0,0.0
0.3283,0.015,-0.4355,0.0,0.0
0.1259,0.015,0.2501,1.2020328102710414,0.14121861546680076
-0.3506,-0.185,-0.1571,0.0,0.0
-0.7355,-0.215,-0.0402,0.0,0.0
-0.3737,-0.185,-0.144,0.0,0.0
-0.3585,-0.185,-0.5784,0.0,0.0
-0.1164,-0.215,-0.0443,0.0,0.0
-0.3608,-0.185,-0.1557,0.0,0.0
0.8028,-0.1942,-0.6956,0.0,0.0
0.3273,0.015,-0.3392,0.6530848787446506,0.07672647665734428
-0.2109,0.0047,-0.108,0.0,0.0
0.5548,-0.185,-0.1623,0.3365727532097004,0.03954163131487708
-0.063,0.015,-0.1158,0.0,0.0
-0.1735,0.1663,-0.0686,0.0,0.0
-0.7785,-0.0913,-0.3892,0.0,0.0
-0.5305,-0.045,-0.7264,0.0,0.0
-0.4666,-0.185,-0.2466,0.0,0.0
-0.1471,-0.0642,-0.7264,0.0,0.0
-0.0814,-0.185,-0.1655,0.0,0.0
0.0633,0.015,-0.4349,0.0,0.0
0.214,0.215,0.1261,0.6755527817403709,0.07936607694644335
-0.0525,-0.015,-0.0458,0.0,0.0
0.0772,0.015,-0.4152,0.0,0.0
0.4322,-0.215,-0.6985,0.0,0.0
0.2225,0.015,0.0684,1.113855206847361,0.13085923179251907
0.1983,0.015,-0.218,0.0,0.0
0.1438,0.185,-0.1489,0.0,0.0
-0.4618,-0.1776,-0.7264,0.0,0.0
-0.0561,-0.215,-0.224,0.0,0.0
0.2106,-0.0105,-0.0147,0.7372503566333809,0.086614503137144
0.2394,0.213,0.4467,0.0,0.0
0.4805,-0.215,-0.0752,0.0,0.0
-0.7083,-0.215,-0.1814,0.0,0.0
-0.6912,-0.215,-0.1967,0.0,0.0
0.0501,0.0825,-0.7265,0.0,0.0
0.2392,0.0488,-0.647,0.0,0.0
0.4208,0.015,-0.5379,0.0,0.0
-0.3341,0.015,-0.0755,0.0,0.0
0.0045,-0.215,-0.5542,0.0,0.0
0.1974,-0.015,-0.5585,0.0,0.0
-0.7785,-0.1266,-0.6287,0.0,0.0
-0.7321,-0.015,-0.0355,0.0,0.0
-0.3047,-0.1034,-0.7264,0.0,0.0
0.2585,0.015,-0.0334,0.3421897289586306,0.04020153138715186
-0.3587,0.015,-0.5469,0.0,0.0
0.0941,0.015,0.253,2.6797432239657635,0.31482470749667435
0.2022,0.015,0.2944,0.18910485021398005,0.02221663576658392
0.5814,-0.015,-0.7249,0.0,0.0
-0.7144,-0.185,-0.164,0.0,0.0
0.0731,0.185,-0.3257,0.0,0.0
-0.4115,-0.215,-0.4216,0.0,0.0
-0.3453,-0.185,-0.0224,0.0,0.0
0.2393,0.0189,-0.1293,3.5868402282453635,0.4213933318668887
-0.7784,-0.1719,-0.2276,0.0,0.0
-0.1913,-0.185,-0.5966,0.0,0.0
-0.1369,0.015,0.0949,0.0,0.0
0.3332,0.015,-0.591,0.0,0.0
0.2363,0.015,0.3839,0.0,0.0
0.0612,0.215,-0.1069,0.0,0.0
0.5992,-0.215,-0.6594,0.0,0.0
0.2882,0.015,0.1257,0.33577032810271046,0.03944735987598069
0.1132,0.015,0.096,0.0,0.0
0.0528,-0.185,-0.5192,0.0,0.0
0.3421,0.185,0.0703,0.33577032810271046,0.03944735987598069
0.3138,-0.015,-0.2964,0.0,0.0
-0.0902,0.015,-0.5066,0.0,0.0
0.3486,0.039,-0.7248,0.0,0.0
-0.6875,0.015,-0.3178,0.0,0.0
-0.1677,0.015,-0.4542,0.0,0.0
0.0639,0.015,-0.2564,0.0,0.0
0.221,0.015,0.0359,1.483327389443652,0.17426599210214835
-0.0372,0.015,-0.3862,0.0,0.0
-0.0082,-0.015,0.2041,0.0,0.0
-0.7583,0.015,-0.7201,0.0,0.0
-0.0418,0.015,-0.4957,0.0,0.0
-0.4755,-0.215,-0.3815,0.0,0.0
0.3486,0.1011,-0.71,0.0,0.0
-0.6579,-0.185,-0.6418,0.0,0.0
0.3486,-0.0381,-0.1934,2.4489122681883027,0.28770595690747786
0.1793,0.015,0.2723,0.8983594864479316,0.1055421131466759
-0.6233,-0.015,-0.2436,0.0,0.0
0.2767,0.215,-0.7219,0.0,0.0
-0.2538,0.015,-0.7186,0.0,0.0
0.2859,0.015,0.5267,0.0,0.0
-0.0265,0.185,-0.6912,0.0,0.0
-0.3263,-0.185,-0.5398,0.0,0.0
0.4555,-0.215,-0.3762,0.0,0.0
0.147,-0.015,-0.4902,0.0,0.0
0.0787,0.0857,0.2659,3.0518901569186876,0.3585457059359583
-0.3146,0.015,-0.2396,0.0,0.0
0.0983,0.015,0.1271,0.0,0.0
-0.0278,0.185,-0.3423,0.0,0.0
-0.0944,0.015,-0.1385,0.0,0.0
0.2884,-0.185,-0.6581,0.0,0.0
-0.1772,0.015,-0.1578,0.0,0.0
-0.1648,0.185,0.4545,0.0,0.0
-0.1736,0.0488,-0.3843,0.0,0.0
0.0303,-0.185,-0.5077,0.0,0.0
0.3003,-0.215,-0.2758,0.0,0.0
-0.0739,0.215,0.0492,0.0,0.0
0.6026,-0.185,-0.6776,0.0,0.0
-0.8027,-0.0527,-0.2648,1.113052781740371,0.13076496035362267
-0.1888,-0.185,-0.5564,0.0,0.0
-0.1736,0.0174,-0.4478,0.0,0.0
0.1304,0.215,-0.1825,0.0,0.0
-0.53,-0.015,-0.2934,0.0,0.0
-0.7784,-0.1362,-0.2027,0.0,0.0
0.0379,0.185,-0.4027,0.0,0.0
-0.198,-0.215,-0.3847,0.0,0.0
-0.2298,-0.015,-0.411,0.0,0.0
0.1361,-0.015,-0.5079,0.0,0.0
-0.1538,0.015,-0.6783,0.0,0.0
0.1194,0.015,0.263,4.982792439372326,0.5853942117336518
-0.4804,-0.015,-0.5032,0.0,0.0
-0.6709,-0.015,-0.6599,0.0,0.0
-0.7045,-0.185,-0.2956,0.0,0.0
0.129,0.1,-0.7025,0.0,0.0
-0.2574,0.015,-0.235,0.0,0.0
0.2148,-0.015,-0.5913,0.0,0.0
0.4733,-0.215,-0.0385,0.0,0.0
-0.6911,0.015,-0.6607,0.0,0.0
0.2297,0.215,-0.3174,0.0,0.0
-0.1048,0.185,-0.2279,0.0,0.0
-0.8028,-0.0219,-0.6082,0.0,0.0
-0.7246,-0.215,-0.0523,0.0,0.0
0.278,0.215,-0.6567,0.0,0.0
-0.4784,0.015,-0.0976,0.0,0.0
0.173,-0.185,-0.4816,0.0,0.0
0.7975,-0.185,-0.2054,0.0,0.0
-0.4121,-0.0051,-0.108,0.3373751783166905,0.03963590275377348
0.4154,-0.215,-0.423,0.0,0.0
-0.1252,0.015,-0.3388,0.0,0.0
0.2753,0.015,-0.5084,0.0,0.0
0.3479,0.215,0.5847,0.4583630527817404,0.053849940818485584
-0.4983,0.015,-0.4518,0.0,0.0
0.2505,-0.015,0.041,1.6186697574893012,0.19016644146267378
0.707,-0.185,-0.3332,0.0,0.0
0.1588,0.1698,-0.7265,0.0,0.0
-0.0585,-0.015,0.3362,0.0,0.0
-0.0176,0.215,-0.069,0.3365727532097004,0.03954163131487708
0.0005,0.015,-0.3678,0.0,0.0
-0.6159,0.015,-0.5767,0.0,0.0
-0.1633,-0.185,-0.3878,0.0,0.0
-0.1735,0.1569,0.2411,0.5280848787446506,0.0620410813981502
0.2158,0.1367,0.2659,0.0,0.0
-0.5952,-0.215,-0.1685,0.0,0.0
0.1038,0.185,-0.543,0.0,0.0
0.5237,-0.185,-0.6296,0.0,0.0
0.7666,0.0059,-0.3131,0.0,0.0
0.144,0.185,-0.5936,0.0,0.0
-0.1988,-0.215,-0.0545,0.0,0.0
0.2229,0.015,-0.4163,0.7203994293865907,0.0846348029203197
0.1475,0.015,-0.6016,0.0,0.0
-0.6234,-0.185,-0.3868,0.0,0.0
-0.0673,-0.215,-0.6838,0.0,0.0
-0.4871,-0.073,-0.7264,0.0,0.0
-0.0306,0.015,-0.0122,0.0,0.0
0.2072,-0.185,-0.1502,0.0,0.0
0.0659,-0.0765,-0.7265,0.0,0.0
-0.8027,-0.155,-0.1427,0.0,0.0
0.0063,0.015,0.256,3.643723252496434,0.428076129424211
0.2369,0.185,-0.6681,0.0,0.0
-0.3068,-0.015,-0.7116,0.0,0.0
-0.5648,-0.185,-0.1784,0.0,0.0
0.1328,0.185,0.2084,0.0,0.0
-0.1036,0.185,-0.1897,0.0,0.0
-0.391,-0.215,-0.2729,0.0,0.0
0.0952,0.015,0.2332,0.0,0.0
0.3296,-0.215,-0.1061,0.0,0.0
0.0368,0.215,-0.4762,0.0,0.0
0.0679,-0.015,-0.5454,0.0,0.0
-0.0884,0.015,0.1871,0.0,0.0
-0.6347,-0.2,-0.0149,0.0,0.0
-0.4629,-0.185,-0.4625,0.0,0.0
0.2792,0.185,0.5388,0.0,0.0
-0.2947,-0.185,-0.1166,0.0,0.0
0.1464,0.015,-0.3077,0.0,0.0
-0.0743,-0.215,-0.3647,0.0,0.0
-0.0165,-0.185,-0.3582,0.0,0.0
-0.0771,0.1995,0.3386,0.0,0.0
0.5006,-0.185,-0.2979,0.0,0.0
-0.7785,-0.0613,-0.6734,0.0,0.0
-0.5515,-0.215,-0.0657,0.0,0.0
0.3371,-0.015,-0.4315,0.0,0.0
-0.4942,0.015,-0.4528,0.0,0.0
-0.4019,0.015,-0.5407,0.0,0.0
-0.173,0.215,0.3681,0.0,0.0
-0.7813,-0.185,-0.6097,0.0,0.0
-0.3125,0.015,-0.2509,0.0,0.0
-0.1736,0.1156,-0.6032,0.0,0.0
0.1233,-0.015,0.0142,0.0,0.0
-0.3989,-0.185,-0.6201,0.0,0.0
0.7664,-0.0061,-0.5831,0.0,0.0
0.1316,0.185,-0.1512,0.0,0.0
-0.4702,0.015,-0.5032,0.0,0.0
0.2194,0.015,-0.4928,0.0,0.0
-0.1568,0.015,-0.5618,0.0,0.0
0.298,0.015,0.1114,0.33577032810271046,0.03944735987598069
0.6333,-0.215,-0.2884,0.0,0.0
0.176,0.015,-0.049,0.0,0.0
0.803,-0.0079,-0.0327,0.9904600570613411,0.11636237941111777
-0.3304,-0.0564,-0.7264,0.0,0.0
0.0571,-0.185,-0.264,0.0,0.0
-0.2692,-0.015,-0.3992,0.0,0.0
0.7427,-0.0067,-0.6684,0.0,0.0
-0.5999,-0.015,-0.5737,0.0,0.0
-0.2573,0.0052,-0.0148,0.0,0.0
-0.0782,0.185,-0.1121,0.0,0.0
-0.4593,-0.015,-0.0953,0.0,0.0
0.1671,0.015,-0.4054,0.0,0.0
-0.365,-0.185,-0.3062,0.0,0.0
0.0967,0.015,-0.0214,0.0,0.0
-0.5295,-0.215,-0.158,0.0,0.0
0.0972,0.015,0.082,0.0,0.0
-0.6572,-0.185,-0.1104,1.2028352353780316,0.14131288690569715
-0.1532,0.185,-0.4602,0.0,0.0
-0.1134,0.015,0.1309,0.0,0.0
-0.0056,0.015,-0.2586,0.0,0.0
-0.2313,-0.185,-0.4731,0.0,0.0
-0.3694,-0.185,-0.4034,0.0,0.0
0.5202,0.0034,-0.667,0.0,0.0
0.0852,-0.185,-0.2223,0.0,0.0
-0.186,-0.215,-0.5513,0.0,0.0
0.4257,-0.015,-0.7035,0.0,0.0
-0.0615,-0.185,-0.6197,0.0,0.0
-0.129,0.015,-0.0539,0.0,0.0
-0.2617,-0.185,-0.4628,0.0,0.0
-0.316,-0.185,-0.063,0.0,0.0
-0.3669,0.015,-0.6872,0.0,0.0
0.4155,0.015,-0.2381,0.5312945791726106,0.06241816715373577
0.5394,-0.185,-0.1371,0.0,0.0
-0.1535,0.215,-0.2851,0.0,0.0
0.2829,0.015,-0.4395,0.0,0.0
0.1096,-0.185,-0.4081,0.0,0.0
-0.1205,0.015,0.0402,0.0,0.0
-0.8029,-0.2076,-0.461,0.0,0.0
0.2791,-0.076,-0.7265,0.0,0.0
-0.1176,0.215,-0.0952,0.0,0.0
0.154,0.015,-0.1923,0.0,0.0
-0.3576,-0.185,-0.5981,0.0,0.0
0.1436,0.0244,-0.7025,0.0,0.0
0.148,0.0681,-0.7025,0.0,0.0
-0.8028,0.0084,-0.1352,0.0,0.0
-0.3791,-0.185,-0.3652,0.0,0.0
0.0606,0.015,-0.0851,0.0,0.0
-0.5556,-0.0219,-0.108,0.0,0.0
0.7625,-0.185,-0.3654,0.0,0.0
0.0073,0.015,-0.3695,0.0,0.0
0.3068,0.015,-0.4788,0.0,0.0
-0.4302,-0.091,-0.108,4.798502139800285,0.5637432046004462
0.6613,-0.185,-0.1019,0.0,0.0
-0.0333,0.015,-0.5608,0.0,0.0
-0.4758,0.015,-0.2929,0.0,0.0
-0.0616,0.185,0.1359,0.0,0.0
0.0612,0.185,-0.6644,0.0,0.0
0.2284,0.015,-0.3997,3.9490905848787454,0.46395164922645055
0.0551,0.015,0.1138,0.0,0.0
-0.1097,0.185,0.567,0.0,0.0
-0.5717,0.015,-0.4717,0.0,0.0
-0.5075,-0.185,-0.3724,0.0,0.0
0.2895,-0.015,0.6948,0.0,0.0
-0.0546,-0.215,-0.2408,0.0,0.0
-0.2349,-0.215,-0.6656,0.0,0.0
0.253,-0.015,0.4407,0.0,0.0
-0.1461,0.215,0.1682,0.0,0.0
0.2749,0.185,0.1571,0.0,0.0
0.1061,0.015,-0.1336,0.0,0.0
0.4181,-0.015,-0.1099,0.18830242510699005,0.022122364327687525
0.2152,0.015,0.0419,0.0,0.0
0.1614,0.185,-0.1894,0.0,0.0
0.2069,0.185,-0.6753,0.0,0.0
-0.0716,0.185,-0.3197,0.0,0.0
0.1899,0.185,0.1673,0.0,0.0
0.2622,-0.015,-0.278,0.0,0.0
-0.0347,0.015,-0.2811,0.0,0.0
0.2777,-0.1205,-0.7265,0.0,0.0
-0.255,-0.015,-0.0619,0.0,0.0
-0.1927,-0.015,-0.0631,0.0,0.0
-0.7067,-0.015,-0.2521,0.0,0.0
0.0871,0.015,0.3038,0.7788873038516406,0.09150614335543476
0.4485,-0.015,-0.3758,0.0,0.0
0.2662,-0.185,-0.6511,0.0,0.0
0.8028,0.0094,-0.7024,0.0,0.0
-0.0832,0.015,-0.1978,0.0,0.0
0.4416,-0.215,-0.5477,0.0,0.0
0.7855,0.015,-0.6304,0.0,0.0
0.4076,-0.015,-0.2207,0.3766048502139801,0.04424472865537505
-0.2823,-0.215,-0.5424,0.0,0.0
-0.1454,0.015,-0.6807,0.0,0.0
-0.3146,-0.015,-0.4912,0.0,0.0
0.0265,0.185,-0.0953,0.0,0.0
-0.7826,-0.015,-0.3577,0.0,0.0
-0.0637,-0.185,-0.4548,0.0,0.0
-0.0654,-0.185,-0.4523,0.0,0.0
-0.1506,0.185,0.0334,0.0,0.0
-0.1823,-0.185,-0.3596,0.0,0.0
-0.1634,0.185,0.4638,0.0,0.0
0.1761,0.015,0.4902,0.0,0.0
-0.8005,0.015,-0.7059,0.0,0.0
0.2567,0.185,-0.0054,0.5264800285306706,0.0618525385203574
-0.1735,0.122,-0.2822,0.0,0.0
0.127,-0.015,-0.2611,0.0,0.0
0.0812,0.015,0.6185,1.2695256776034238,0.14914789093841982
0.3235,0.185,-0.4933,0.0,0.0
0.3107,0.1105,-0.7025,0.0,0.0
0.0248,0.015,0.1396,0.0,0.0
0.1839,-0.015,-0.0198,0.0,0.0
-0.3855,-0.185,-0.2629,0.0,0.0
-0.6735,0.0076,-0.0149,0.0,0.0
-0.4393,-0.185,-0.1344,0.0,0.0
-0.1572,0.015,-0.7205,0.0,0.0
-0.6908,-0.015,-0.1763,0.18830242510699005,0.022122364327687525
0.1886,0.0096,-0.7265,0.0,0.0
0.181,0.015,-0.1945,0.0,0.0
-0.2512,-0.185,-0.2413,0.0,0.0
-0.1824,0.015,-0.5814,0.0,0.0
0.0888,0.015,-0.2446,0.0,0.0
-0.4883,-0.215,-0.2044,0.0,0.0
-0.5403,0.015,-0.1524,0.0,0.0
0.1908,0.185,-0.4041,0.0,0.0
0.1858,0.015,-0.5276,0.0,0.0
-0.1678,0.0673,0.2659,0.0,0.0
-0.2943,-0.015,-0.3434,0.0,0.0
-0.7784,-0.1535,-0.0612,0.0,0.0
0.0205,-0.185,-0.4824,0.0,0.0
-0.1735,0.0574,-0.0817,0.0,0.0
-0.0819,0.215,-0.6438,0.0,0.0
0.3575,-0.185,-0.394,0.3990727532097005,0.04688432894447413
-0.5299,0.015,-0.1989,0.0,0.0
0.0722,0.015,0.4409,0.3373751783166905,0.03963590275377348
0.1748,-0.0035,-0.0147,0.0,0.0
0.2326,-0.185,-0.519,0.0,0.0
0.2461,0.015,-0.0383,0.5296897289586305,0.06222962427594298
-0.5554,0.015,-0.0774,0.0,0.0
-0.1375,0.015,-0.6625,0.0,0.0
0.2469,-0.1335,-0.7265,0.0,0.0
0.362,-0.215,-0.1299,0.0,0.0
0.541,-0.185,-0.1175,0.0,0.0
0.2128,-0.185,-0.6967,0.0,0.0
-0.643,0.015,-0.3925,0.0,0.0
-0.0044,0.015,0.4652,0.0,0.0
-0.5106,0.015,-0.3603,0.0,0.0
-0.5198,0.015,-0.5044,0.0,0.0
-0.7785,-0.0313,-0.6544,0.0,0.0
0.0954,-0.215,-0.5809,0.0,0.0
-0.3434,-0.185,-0.611,0.0,0.0
-0.3754,0.015,-0.5916,0.0,0.0
-0.0374,0.015,-0.2474,0.0,0.0
0.6375,-0.215,-0.6518,0.0,0.0
-0.1878,-0.015,-0.3378,0.0,0.0
0.2981,0.1807,-0.7265,0.0,0.0
-0.0331,0.1542,-0.7025,0.0,0.0
0.3486,-0.029,-0.2705,0.0,0.0
0.2249,0.015,0.2305,2.2471469329529246,0.26400192732719524
-0.5448,0.015,-0.7034,0.0,0.0
-0.1323,0.185,-0.6229,0.0,0.0
-0.0467,-0.215,-0.2385,0.0,0.0
0.4065,-0.015,-0.1007,1.9785128388017121,0.23244194450554634
0.2198,-0.215,-0.4304,0.0,0.0
-0.0083,0.015,0.2373,0.18910485021398005,0.02221663576658392
0.349,0.2134,0.6883,0.4014800285306705,0.047167143261163315
-0.1969,-0.015,-0.4516,0.0,0.0
-0.5105,-0.015,-0.4803,0.0,0.0
-0.1692,0.0053,-0.108,0.3365727532097004,0.03954163131487708
0.444,0.015,-0.0158,3.626069900142654,0.4260021577684904
-0.7577,-0.015,-0.3803,0.0,0.0
-0.1633,0.185,-0.2776,0.0,0.0
0.3323,-0.185,-0.3321,0.0,0.0
0.1759,0.015,0.0847,0.0,0.0
-0.6686,-0.0096,-0.7264,0.0,0.0
0.3486,0.196,-0.3015,0.0,0.0
0.1111,0.015,0.6344,0.0,0.0
0.1085,0.185,0.0948,0.0,0.0
0.3486,0.1881,-0.2436,0.0,0.0
-0.3429,0.015,-0.1879,0.0,0.0
0.1607,0.215,-0.1405,0.3511947218259629,0.04125946642365585
0.264,0.0631,-0.7265,0.0,0.0
0.0106,-0.185,-0.6356,0.0,0.0
-0.1702,0.015,-0.3005,0.0,0.0
0.0592,-0.185,-0.5013,0.0,0.0
0.7172,-0.215,-0.0637,0.0,0.0
0.2457,0.185,0.679,0.0,0.0
0.3307,-0.015,0.4586,0.18910485021398005,0.02221663576658392
0.1119,0.215,-0.5802,0.0,0.0
-0.6249,0.015,-0.2611,0.0,0.0
-0.4342,-0.185,-0.6366,0.0,0.0
0.4722,-0.215,-0.0444,0.0,0.0
-0.4488,-0.015,-0.358,0.0,0.0
0.1263,0.185,-0.1564,0.0,0.0
0.221,-0.185,-0.3465,0.0,0.0
0.6918,-0.215,-0.0396,0.0,0.0
-0.1095,-0.015,0.2357,0.0,0.0
0.6485,-0.215,-0.2638,0.0,0.0
0.0215,-0.185,-0.2269,0.0,0.0
0.3906,-0.185,-0.2333,0.0,0.0
-0.1866,-0.015,-0.0204,0.0,0.0
-0.0282,0.015,0.3471,0.0,0.0
-0.4809,-0.0796,-0.108,0.0,0.0
-0.6918,-0.185,-0.5089,0.0,0.0
-0.008,0.015,0.1417,0.0,0.0
0.7256,0.0062,-0.6683,0.0,0.0
0.0822,0.015,0.0029,0.0,0.0
-0.0713,0.215,-0.2834,0.0,0.0
0.3001,0.015,-0.1294,0.0,0.0
0.1154,0.015,0.1151,0.0,0.0
-0.3487,-0.185,-0.6852,0.0,0.0
-0.5715,-0.185,-0.087,0.0,0.0
-0.1643,-0.185,-0.5899,0.0,0.0
-0.6467,0.015,-0.6821,0.0,0.0
0.0307,0.215,0.7192,0.0,0.0
-0.4721,0.015,-0.2573,0.0,0.0
0.3735,-0.1986,-0.7289,0.29582738944365194,0.034754737139804544
-0.2444,0.015,-0.7021,0.0,0.0
0.3342,0.185,-0.3094,0.0,0.0
0.0262,-0.215,-0.1288,0.0,0.0
-0.7784,-0.0578,-0.2682,0.0,0.0
-0.5295,0.015,-0.6138,0.0,0.0
0.112,0.185,-0.5398,0.0,0.0
0.0868,0.185,0.1093,0.0,0.0
0.0019,0.015,-0.1688,0.0,0.0
0.0927,0.015,0.058,0.0,0.0
-0.0215,0.215,0.0564,0.7796897289586306,0.09160041479433116
0.6608,-0.015,-0.0489,0.0,0.0
-0.7784,-0.1579,-0.2508,0.0,0.0
0.1775,0.215,0.1095,0.0,0.0
0.4238,-0.015,-0.5546,0.0,0.0
0.025,-0.015,0.6545,0.0,0.0
-0.163,-0.215,-0.4336,0.0,0.0
-0.1124,-0.185,-0.6806,0.0,0.0
-0.4532,-0.185,-0.6758,0.0,0.0
-0.7904,0.015,-0.139,0.3365727532097004,0.03954163131487708
0.2859,0.015,-0.4776,0.0,0.0
-0.1596,-0.185,-0.5472,0.0,0.0
0.3381,-0.015,-0.3245,0.0,0.0
-0.0225,0.015,-0.7005,0.0,0.0
0.3193,-0.0019,-0.0147,1.0619650499286735,0.12476301207721881
0.1073,0.015,-0.0217,0.0,0.0
-0.131,0.015,-0.5805,0.0,0.0
0.3194,0.215,0.2768,0.0,0.0
0.0029,0.015,0.1346,0.0,0.0
-0.0317,-0.185,-0.3195,0.0,0.0
-0.2867,-0.215,-0.3514,0.0,0.0
0.2499,0.1363,-0.7265,0.0,0.0
0.2531,0.015,0.7273,0.0,0.0
0.2106,-0.0584,-0.108,4.982792439372325,0.5853942117336518
0.4059,-0.015,-0.5465,0.0,0.0
-0.0836,0.185,0.2298,0.0,0.0
0.2393,0.1559,-0.0667,7.002139800285307,0.8226335250185924
-0.1735,0.0875,-0.0581,1.051355206847361,0.12351653416292202
-0.1402,0.185,0.5843,0.0,0.0
0.1872,-0.015,0.3886,0.0,0.0
-0.7101,-0.185,-0.4998,0.0,0.0
0.1717,0.015,0.3883,0.5272824536376606,0.0619468099592538
0.0706,0.015,-0.6791,0.0,0.0
-0.048,-0.185,-0.2693,0.0,0.0
-0.1443,-0.0506,-0.7264,0.0,0.0
-0.7785,-0.1558,-0.3098,0.0,0.0
-0.1049,-0.015,-0.1881,0.0,0.0
0.0577,0.185,-0.0645,0.0,0.0
0.2088,0.015,-0.2373,0.18910485021398005,0.02221663576658392
0.4045,0.015,-0.032,0.5232703281027105,0.061475452764771815
-0.6396,-0.185,-0.6205,0.0,0.0
0.2392,0.0352,-0.2697,0.46398002853067044,0.05450984089076035
0.3128,-0.015,-0.37,0.0,0.0
0.6042,-0.185,-0.2076,0.0,0.0
-0.563,-0.185,-0.5832,0.0,0.0
0.1277,0.015,-0.6424,0.0,0.0
0.045,-0.185,-0.5677,0.0,0.0
0.1502,0.015,-0.2656,0.0,0.0
-0.4058,0.015,-0.5315,0.0,0.0
0.0377,0.1856,-0.7265,0.0,0.0
-0.7518,0.015,-0.6734,0.0,0.0
-0.2892,0.015,-0.6791,0.0,0.0
0.2392,0.0783,-0.4725,1.3919400855920117,0.16352952267228107
-0.7718,-0.015,-0.6177,0.0,0.0
-0.8027,-0.0278,-0.2172,0.9520328102710414,0.11184782494841257
0.0227,0.015,0.0721,0.0,0.0
-0.2921,-0.185,-0.5565,0.0,0.0
0.5329,0.0,-0.7288,0.0,0.0
0.3487,0.0106,-0.0061,5.5436875891583455,0.6512899475222323
-0.2099,0.015,-0.1252,0.0,0.0
-0.4691,0.015,-0.1141,0.0,0.0
0.2365,0.015,0.2788,1.8302425106990015,0.21502267751835674
-0.5909,-0.015,-0.6716,0.0,0.0
0.0043,0.015,0.2655,3.454618402282454,0.40585949365762714
0.165,-0.089,-0.108,1.240460057061341,0.14573316992950594
0.1076,-0.015,0.126,0.2099679029957204,0.024667693177890207
0.4499,0.0037,-0.0588,0.33496790299572043,0.039353088437084294
-0.03,0.204,-0.7265,0.0,0.0
0.0773,0.015,0.059,0.0,0.0
0.1504,0.185,-0.0506,0.0,0.0
0.0706,0.015,-0.219,0.0,0.0
-0.6889,-0.185,-0.5998,0.0,0.0
0.1786,0.015,0.5876,0.0,0.0
-0.1574,-0.015,-0.3813,0.0,0.0
0.0506,0.185,0.1113,0.0,0.0
0.0673,-0.185,-0.3353,0.0,0.0
-0.5599,-0.015,-0.7226,0.0,0.0
-0.7147,0.015,-0.3771,0.0,0.0
0.3368,0.015,-0.4541,0.18990727532097007,0.022310907205480318
-0.7655,0.015,-0.541,0.0,0.0
-0.4537,-0.1557,-0.108,0.0,0.0
0.1707,0.015,0.2251,0.0,0.0
-0.3157,-0.185,-0.448,0.0,0.0
-0.7895,0.015,-0.153,0.6755527817403709,0.07936607694644335
-0.0226,-0.185,-0.5473,0.0,0.0
0.1444,0.185,0.1848,0.0,0.0
0.291,0.185,-0.6125,0.0,0.0
-0.219,0.015,-0.0254,0.0,0.0
-0.497,0.0144,-0.729,0.0,0.0
0.5593,-0.215,-0.5518,0.0,0.0
-0.8027,-0.038,-0.1862,0.0,0.0
0.062,0.185,-0.4369,0.0,0.0
0.4615,-0.215,-0.3128,0.0,0.0
0.0822,-0.185,-0.0215,0.0,0.0
-0.2312,-0.185,-0.2274,0.0,0.0
-0.3332,-0.0099,-0.7264,0.0,0.0
-0.0804,0.015,-0.1459,0.0,0.0
-0.6331,-0.1856,-0.7291,0.0,0.0
0.2394,0.2014,0.3963,0.0,0.0
-0.0116,-0.015,-0.3016,0.0,0.0
0.3426,0.215,-0.2978,0.0,0.0
-0.0543,-0.015,-0.6076,0.0,0.0
-0.1518,0.015,0.2162,0.0,0.0
0.2393,0.1474,0.1885,0.18990727532097007,0.022310907205480318
-0.1139,-0.185,-0.3025,0.0,0.0
0.1722,0.015,-0.1918,0.0,0.0
-0.0784,0.015,0.6998,0.0,0.0
-0.3762,-0.185,-0.7228,0.0,0.0
0.2393,0.0561,-0.1278,4.576497860199715,0.5376614398391101
0.2392,0.0678,-0.4167,0.18990727532097007,0.022310907205480318
-0.7784,-0.0492,-0.1159,0.0,0.0
0.2555,0.015,-0.1098,2.614835948644793,0.3071991955503881
0.1862,0.185,-0.2906,0.0,0.0
-0.5572,-0.015,-0.3744,0.0,0.0
0.3486,-0.0914,-0.3532,0.3373751783166905,0.03963590275377348
-0.0817,0.015,-0.4906,0.0,0.0
0.1272,0.015,-0.3719,0.0,0.0
0.0456,0.2126,0.6912,0.0,0.0
