x,y,z,SaliencyScore,NormalizedScore
0.3378,-0.2414,0.2155,0.0,0.0
0.417,0.2414,-0.237,0.0,0.0
-0.2615,0.1886,-0.052,0.19220055710306408,0.015493432132030987
-0.3432,0.1586,-0.1197,0.7143105849582173,0.05758111597619849
-0.1757,-0.0648,-0.4541,0.0,0.0
-0.1051,0.1586,0.3716,0.0,0.0
-0.2333,-0.0194,0.1983,0.0,0.0
-0.1154,-0.2291,0.5967,0.0,0.0
-0.0749,0.0187,-0.48,0.4141713091922006,0.03338666217581677
-0.3072,0.1886,-0.1635,0.0,0.0
-0.1056,-0.1695,0.4346,0.0,0.0
-0.1232,0.1581,-0.4963,0.0,0.0
0.2919,-0.0414,0.3104,2.1223885793871866,0.1710873470304255
0.0579,0.1886,-0.2496,0.19846796657381618,0.015998652745031997
0.2845,-0.0414,0.0159,0.0,0.0
0.3699,-0.1064,-0.2227,0.0,0.0
-0.1951,-0.1707,0.3082,0.0,0.0
-0.0456,0.1439,-0.3987,0.0,0.0
-0.5246,0.0986,-0.0242,0.0,0.0
-0.1609,0.2364,0.705,0.0,0.0
-0.0593,-0.1322,0.5812,0.0,0.0
-0.0965,-0.0395,-0.4589,0.0,0.0
-0.0593,-0.2414,0.0689,0.0,0.0
0.5082,0.1864,-0.2589,0.0,0.0
0.0323,0.1586,-0.0305,0.0,0.0
0.1362,0.1886,0.0494,0.0,0.0
0.0655,-0.0185,0.5483,0.0,0.0
0.3046,-0.1491,0.5729,0.0,0.0
-0.6276,0.1854,-0.0477,0.0,0.0
0.3473,0.0016,-0.2538,0.0,0.0
0.0376,0.1886,-0.1846,0.0,0.0
0.0055,-0.0127,0.1744,1.326949860724234,0.10696643089704726
-0.7395,0.1886,-0.024,0.0,0.0
0.0631,-0.2414,-0.2359,0.0,0.0
0.0977,-0.2411,0.0514,0.0,0.0
-0.0053,-0.1144,-0.3596,0.0,0.0
0.1261,-0.2414,0.2144,0.7956128133704736,0.06413495003929494
-0.0881,0.1586,-0.1826,0.0,0.0
-0.2056,0.0336,0.4017,0.0,0.0
-0.2992,0.0409,0.1397,0.0,0.0
0.2815,-0.223,-0.0854,0.0,0.0
0.0515,-0.078,0.1054,0.0,0.0
0.1757,0.1886,-0.2271,0.0,0.0
-0.0188,-0.0776,-0.3719,0.0,0.0
-0.1653,0.0248,0.4756,0.0,0.0
-0.1731,0.0668,-0.5786,0.0,0.0
-0.2131,-0.1985,0.2497,0.0,0.0
0.2851,-0.0172,0.5322,0.0,0.0
0.3076,-0.236,-0.2271,0.0,0.0
0.4917,-0.1591,-0.1914,0.0,0.0
0.4369,-0.0964,-0.2231,0.0,0.0
-0.0513,0.1886,-0.3787,0.0,0.0
-0.2133,0.1886,0.0746,0.42513927576601673,0.03427079824856854
-0.2072,-0.0252,0.3928,0.0,0.0
-0.4648,0.0804,-0.0513,0.0,0.0
-0.0463,0.1586,0.0953,0.0,0.0
0.1403,-0.2405,0.0118,0.0,0.0
0.2779,0.1467,-0.231,0.0,0.0
0.5422,-0.1435,-0.2157,0.0,0.0
-0.5864,0.0746,0.0041,0.0,0.0
-0.0082,-0.2353,0.5359,0.0,0.0
0.5122,-0.1912,-0.2291,0.0,0.0
0.065,-0.0218,-0.3071,0.0,0.0
-0.029,0.1586,-0.1483,0.0,0.0
0.3118,-0.1842,-0.1024,0.0,0.0
0.1506,0.1886,-0.2171,0.0,0.0
-0.1669,-0.0096,0.4608,0.0,0.0
0.2105,-0.2414,0.1771,0.0,0.0
0.4538,-0.1575,0.506,0.0,0.0
0.1977,-0.1712,0.5374,0.0,0.0
0.0373,0.1007,-0.3631,0.0,0.0
-0.0696,-0.105,0.3369,0.0,0.0
-0.0872,-0.1482,-0.4968,0.0,0.0
0.3724,0.1009,-0.2226,0.0,0.0
0.2036,-0.2414,0.3155,0.4298398328690808,0.0346497137083193
-0.1064,0.1886,0.1705,1.3816155988857939,0.1113730773548894
0.2502,0.1435,-0.0669,0.36263927576601673,0.02923262602447513
0.2262,0.1586,-0.1858,0.0,0.0
0.5907,-0.2066,-0.2412,0.0,0.0
-0.0656,-0.1968,-0.4208,0.0,0.0
0.4509,-0.2262,-0.172,0.0,0.0
0.099,0.0351,0.0507,0.0,0.0
0.2512,-0.2001,0.5516,0.0,0.0
-0.0432,0.1586,-0.2414,0.0,0.0
-0.1687,0.0417,0.4461,0.0,0.0
-0.0604,0.193,-0.4149,0.0,0.0
0.3332,-0.1739,0.5861,0.0,0.0
-0.6146,-0.1271,0.0053,0.0,0.0
-0.0561,-0.0725,-0.41,0.0,0.0
-0.7308,-0.1122,0.0216,0.0,0.0
0.0505,0.0394,0.1057,0.0,0.0
0.1858,0.071,-0.2835,0.0,0.0
0.3306,-0.1023,-0.255,0.0,0.0
-0.1149,-0.0859,0.4605,0.0,0.0
-0.1782,0.2279,0.3841,0.0,0.0
0.5232,0.085,-0.2305,0.0,0.0
-0.7918,0.2205,0.0059,0.0,0.0
0.4189,-0.2414,-0.1266,0.0,0.0
-0.3458,0.1886,-0.0026,0.19846796657381618,0.015998652745031997
0.0616,0.1886,-0.1983,0.3657729805013928,0.029485236330975637
-0.2927,0.1894,0.1497,1.3081476323119778,0.10545076905804424
-0.5899,-0.1404,0.0041,0.0,0.0
-0.0927,-0.1665,0.5905,0.0,0.0
0.5069,-0.0841,0.6126,0.0,0.0
0.2691,0.0222,-0.2324,0.0,0.0
-0.2493,0.1742,-0.2596,0.0,0.0
-0.231,0.121,-0.7036,2.0365598885793874,0.164168631413495
-0.1757,-0.1601,-0.6507,0.0,0.0
0.1343,-0.0414,0.4135,0.8673398328690809,0.06991691927697317
-0.3345,-0.0037,0.0945,0.0,0.0
0.7876,-0.0983,-0.3091,0.0,0.0
-0.2208,-0.2279,-0.2501,0.0,0.0
0.0543,-0.2414,-0.1649,0.39536908077994437,0.03187100033681375
-0.0815,0.0001,0.5563,0.0,0.0
0.3243,0.1345,-0.2254,0.0,0.0
-0.1736,0.0572,0.7501,0.0,0.0
-0.2742,0.1586,-0.1986,0.19846796657381618,0.015998652745031997
0.1088,0.1586,-0.1216,0.0,0.0
0.4625,-0.0721,0.653,0.19220055710306408,0.015493432132030987
-0.0902,0.1586,-0.179,0.0,0.0
0.3163,-0.2414,0.4269,0.3657729805013928,0.029485236330975637
0.5327,-0.1287,-0.2112,0.0,0.0
0.134,-0.0587,-0.2709,0.0,0.0
0.4814,0.0019,-0.226,0.0,0.0
0.3219,-0.2414,-0.0471,0.0,0.0
0.5336,-0.1575,0.6896,0.0,0.0
-0.3309,-0.2211,-0.1163,0.0,0.0
-0.1954,0.1586,-0.1154,0.0,0.0
-0.0111,-0.1445,0.2049,0.0,0.0
-0.0496,0.1586,0.2998,0.0,0.0
0.4136,-0.2414,0.5616,0.0,0.0
0.3394,-0.0414,0.4846,0.0,0.0
-0.1872,-0.2071,-0.3558,0.4267061281337048,0.03439710340181879
0.5084,-0.1448,0.6147,0.0,0.0
-0.1049,-0.1506,0.4325,0.0,0.0
-0.1156,-0.0835,0.4624,0.0,0.0
-0.1687,0.0722,0.4456,0.0,0.0
-0.2021,-0.2359,-0.2983,0.0,0.0
-0.1665,-0.1824,0.464,0.0,0.0
0.4179,0.1886,-0.2147,0.0,0.0
0.6674,0.0434,-0.2892,0.0,0.0
-0.3668,-0.2414,-0.0732,0.0,0.0
0.2024,0.0854,-0.2783,0.0,0.0
0.3324,-0.2414,-0.1398,0.0,0.0
0.1322,-0.2414,0.0689,0.0,0.0
-0.204,0.2235,0.2772,0.0,0.0
-0.1655,0.1834,0.4732,0.0,0.0
-0.1792,-0.0596,-0.4082,0.0,0.0
-0.0484,-0.2414,0.2265,0.0,0.0
-0.0811,-0.1512,0.3673,0.0,0.0
-0.041,0.1886,0.2515,1.33008356545961,0.10721904120354775
0.5668,0.1149,-0.228,0.0,0.0
-0.2533,-0.1488,0.1579,0.0,0.0
-0.0254,-0.2414,-0.2633,0.0,0.0
-0.1472,0.1586,-0.0658,0.0,0.0
-0.2674,0.0412,0.1336,0.0,0.0
-0.1865,0.0465,0.3435,0.0,0.0
-0.6577,0.2347,0.0096,0.0,0.0
-0.6762,0.1726,0.012,0.0,0.0
-0.0163,-0.1811,0.5388,0.0,0.0
-0.0915,-0.2414,0.1276,0.0,0.0
-0.1907,-0.2414,0.5174,0.0,0.0
-0.1814,-0.1557,-0.5943,0.0,0.0
-0.1412,-0.2414,-0.2071,1.0847841225626742,0.08744526776692489
0.3632,-0.0414,0.0848,0.0,0.0
-0.4339,-0.1306,-0.0061,0.0,0.0
-0.1919,0.1729,0.5146,0.0,0.0
0.163,0.1886,-0.2558,0.0,0.0
0.5997,0.1586,-0.235,0.0,0.0
-0.1089,0.1586,0.0418,0.0,0.0
-0.1589,-0.0824,0.6641,0.0,0.0
-0.1772,-0.1632,-0.4292,0.0,0.0
0.6512,-0.2172,-0.2542,0.0,0.0
-0.0238,0.1158,-0.4193,0.0,0.0
-0.0529,0.2396,-0.4065,0.0,0.0
0.2848,0.1325,-0.0874,0.7221448467966574,0.05821264174244975
-0.1746,0.1243,0.75,0.0,0.0
0.0981,-0.0461,0.5416,0.5846100278551531,0.04712585606826091
-0.3746,0.1586,-0.0174,0.0,0.0
-0.0346,0.0987,0.2536,0.7768105849582173,0.0626192882002919
-0.0931,0.1004,-0.4544,0.0,0.0
0.6766,0.1399,-0.2606,0.0,0.0
-0.0243,-0.0601,0.2311,0.0,0.0
0.5418,0.2414,-0.2448,0.0,0.0
0.4476,-0.2379,0.4835,0.0,0.0
0.5407,-0.0747,-0.215,0.0,0.0
-0.0923,0.1886,0.05,0.42513927576601673,0.03427079824856854
0.0504,-0.0414,0.1562,0.0,0.0
-0.6025,-0.1966,-0.0254,0.0,0.0
-0.3384,-0.2156,0.0488,0.0,0.0
-0.0579,0.1886,0.0641,0.0,0.0
0.1735,-0.0414,0.5008,0.0,0.0
-0.0717,-0.0365,0.3424,0.4267061281337048,0.03439710340181879
-0.3197,0.108,0.1116,0.4829387186629526,0.038930055012911184
0.378,0.1586,-0.1703,0.0,0.0
-0.5779,0.0091,0.0039,2.791608635097493,0.22503368137420002
0.2195,0.1886,-0.0602,0.0,0.0
-0.1776,-0.0111,-0.5453,0.3610724233983287,0.029106320871224875
-0.1586,0.0762,0.6548,1.1488509749303621,0.09260974514426855
-0.2056,-0.1967,0.4014,1.208217270194986,0.09739530706186145
0.1114,-0.1178,0.5394,0.0,0.0
-0.2063,0.172,-0.5254,0.0,0.0
-0.1252,0.1886,-0.1369,0.0,0.0
0.0713,-0.0771,0.5163,0.0,0.0
-0.0299,0.0502,-0.3827,0.0,0.0
0.4352,-0.1411,0.2518,2.3990250696378834,0.19338722353205345
-0.2742,0.1886,0.0416,0.2345055710306407,0.018903671269787807
-0.3806,-0.1493,-0.0861,0.0,0.0
0.1397,-0.0414,0.4121,0.3610724233983287,0.029106320871224875
-0.1623,0.1586,0.2954,0.0,0.0
0.4468,0.0821,-0.2236,0.0,0.0
0.3285,-0.2133,0.5839,0.36263927576601673,0.02923262602447513
0.3127,-0.0558,0.5437,0.0,0.0
0.5595,-0.1226,-0.2242,0.0,0.0
-0.1925,-0.0883,0.5069,0.0,0.0
0.0468,0.1886,-0.2852,0.19846796657381618,0.015998652745031997
0.1292,0.1886,0.0086,0.42983983286908084,0.0346497137083193
-0.1742,-0.1348,0.4077,0.0,0.0
-0.5547,0.1886,-0.0272,0.0,0.0
0.1403,-0.1561,0.012,0.0,0.0
0.316,-0.0414,0.4957,0.0,0.0
0.1368,0.1586,-0.0904,0.0,0.0
0.5841,-0.061,-0.24,0.0,0.0
-0.1629,-0.2414,-0.2009,0.48763927576601673,0.03930897047266195
0.4283,-0.1803,-0.2528,0.0,0.0
-0.004,-0.046,-0.3585,0.0,0.0
0.4366,-0.1568,0.6393,0.0,0.0
0.4474,-0.0114,-0.1703,0.0,0.0
-0.6637,-0.1409,-0.02,0.0,0.0
0.4199,-0.2414,0.2869,0.4298398328690808,0.0346497137083193
-0.5071,-0.1439,0.0079,0.0,0.0
-0.1012,-0.0246,-0.5171,0.19063370473537605,0.015367126978780734
0.4935,-0.0885,0.5934,0.3579387186629527,0.028853710564724373
0.0362,0.0866,-0.3639,0.0,0.0
-0.2848,-0.171,0.1077,0.0,0.0
0.0047,-0.2414,0.3151,0.0,0.0
-0.1751,-0.1838,-0.4888,0.0,0.0
0.4601,0.1886,-0.1946,0.0,0.0
0.0867,-0.0669,0.0628,0.0,0.0
-0.1756,-0.1766,-0.456,0.0,0.0
-0.1631,-0.2414,-0.5075,0.0,0.0
0.0924,0.0014,-0.3253,0.0,0.0
-0.1391,0.1078,-0.5204,0.0,0.0
0.034,-0.0285,0.5558,0.0,0.0
0.5071,0.1449,-0.1988,0.0,0.0
-0.0297,0.1586,0.2926,0.0,0.0
-0.1155,0.1586,0.3102,0.0,0.0
-0.5032,0.051,-0.0402,1.2613161559888582,0.10167564836645336
-0.1883,0.2234,0.6406,0.0,0.0
0.4214,-0.0414,0.2157,0.5517061281337048,0.044473447850005614
-0.1826,0.1881,0.3617,0.0,0.0
-0.1409,0.2414,-0.5406,0.0,0.0
-0.4993,-0.1371,-0.0413,0.0,0.0
0.7811,0.0044,-0.325,0.0,0.0
-0.0761,-0.1536,0.3542,0.0,0.0
0.2894,0.1586,-0.2268,0.0,0.0
-0.0541,-0.2414,-0.0935,0.0,0.0
-0.0617,0.0654,0.317,0.0,0.0
-0.0281,-0.2375,-0.3809,0.0,0.0
-0.3393,-0.0152,-0.1104,0.0,0.0
0.4225,-0.2114,0.5979,0.0,0.0
-0.1254,-0.1265,0.4897,0.0,0.0
-0.5933,0.1324,0.0042,0.0,0.0
0.5145,-0.0352,-0.2294,0.0,0.0
-0.4567,-0.0258,-0.0128,0.0,0.0
-0.1757,-0.1412,0.3983,0.0,0.0
-0.0959,-0.098,0.4075,0.0,0.0
-0.1909,0.0454,0.7049,0.0,0.0
0.2794,-0.0414,0.2526,2.7193593314763236,0.21920961041877177
0.7094,-0.2226,-0.2698,0.0,0.0
-0.1146,0.1586,-0.3492,0.0,0.0
0.2288,0.1586,-0.2247,0.0,0.0
0.5488,0.0015,-0.2341,0.18906685236768805,0.015240821825530482
0.4273,-0.2414,0.5022,0.0,0.0
0.5552,-0.1003,-0.165,0.0,0.0
0.5257,-0.1952,0.6356,0.0,0.0
-0.085,0.1372,-0.4441,0.0,0.0
-0.1354,-0.2414,-0.1806,1.0377785515320335,0.0836561131694173
0.408,-0.1173,0.6241,0.0,0.0
-0.2058,0.1793,-0.6443,0.0,0.0
-0.1683,0.0112,-0.5698,0.0,0.0
-0.2564,-0.0132,0.2206,0.7909122562674095,0.06375603457954417
0.5379,-0.0949,-0.1265,0.0,0.0
0.4351,-0.1683,0.4157,0.0,0.0
0.3811,-0.0226,-0.2224,0.0,0.0
-0.3123,0.1381,-0.1303,0.9080779944289694,0.07320085326147974
-0.4163,0.0246,-0.0693,0.0,0.0
0.0641,-0.0414,0.3502,0.5564066852367688,0.04485236330975637
-0.4955,-0.0491,-0.0206,0.0,0.0
0.4279,-0.1648,0.6346,0.0,0.0
-0.0702,0.1335,-0.4261,0.0,0.0
-0.2922,0.0959,0.1506,1.1942896935933147,0.09627259458852587
0.0241,-0.1165,0.5277,0.0,0.0
-0.4877,0.0621,-0.0195,0.0,0.0
-0.1796,0.0734,-0.4046,3.205779944289694,0.25842034355001686
-0.1263,0.1586,0.102,0.0,0.0
-0.5969,-0.0751,-0.0256,0.0,0.0
0.0867,-0.2275,0.0632,0.0,0.0
0.3638,0.0438,-0.253,0.3657729805013928,0.029485236330975637
-0.5553,-0.147,-0.0289,0.0,0.0
0.0303,-0.2171,0.5261,0.0,0.0
-0.2515,-0.0302,0.2324,0.4267061281337048,0.03439710340181879
-0.2209,0.0913,0.2284,0.0,0.0
-0.0817,0.1324,-0.44,0.0,0.0
-0.0427,0.1586,0.2757,0.0,0.0
-0.0991,-0.2414,0.3204,0.0,0.0
-0.1588,0.1698,0.5728,0.0,0.0
-0.1659,-0.1438,0.4698,0.0,0.0
-0.1907,-0.0174,0.5332,0.0,0.0
-0.3768,-0.1553,0.0206,0.0,0.0
0.2297,0.1586,-0.0706,0.0,0.0
0.5722,-0.0825,-0.2378,0.0,0.0
0.4326,-0.2412,0.2819,0.2360724233983287,0.01902997642303806
-0.2061,0.0643,0.2705,0.0,0.0
0.4751,-0.0195,-0.2255,0.0,0.0
-0.6239,-0.2021,0.006,0.3563718662952646,0.02872740541147412
0.3537,-0.0414,0.1291,0.0,0.0
-0.5178,0.0907,-0.0367,0.9752785515320335,0.0786179409453239
-0.0791,0.1692,0.4494,0.0,0.0
-0.1238,0.2258,-0.5526,0.0,0.0
0.5347,0.118,-0.2623,0.0,0.0
-0.1783,0.1197,0.3839,0.0,0.0
0.1533,-0.0701,-0.2631,0.0,0.0
-0.1882,0.0822,0.6076,0.0,0.0
0.019,0.0681,0.1517,0.0,0.0
0.3225,-0.2414,0.4897,0.0,0.0
-0.1901,-0.1094,0.5435,0.0,0.0
-0.0731,0.1586,-0.3341,0.0,0.0
-0.6762,-0.1245,0.012,0.0,0.0
0.4458,-0.2414,0.0471,0.0,0.0
-0.1689,-0.1544,0.6104,0.0,0.0
-0.179,-0.1983,-0.5897,0.0,0.0
-0.2284,-0.0771,0.3005,0.0,0.0
-0.1314,0.0664,-0.5655,2.9101671309192207,0.2345907713034692
-0.225,0.1745,0.2179,0.0,0.0
0.0687,-0.2101,0.0833,0.0,0.0
-0.2394,-0.0721,-0.7429,3.5384749303621175,0.28523913775682047
-0.0806,0.0356,-0.4387,0.0,0.0
0.2599,-0.2414,-0.0064,0.0,0.0
0.4688,-0.2414,0.5607,0.0,0.0
-0.2779,-0.1134,0.1175,0.0,0.0
-0.1846,-0.006,-0.3692,0.0,0.0
0.2256,-0.0414,0.1404,0.0,0.0
-0.0519,0.0519,0.2928,0.5485724233983287,0.0442208375435051
-0.049,-0.2414,0.1073,0.0,0.0
-0.1589,-0.2266,0.5711,0.0,0.0
-0.177,0.0295,-0.6536,0.0,0.0
-0.0703,-0.0942,0.3387,0.0,0.0
0.017,0.1886,0.1885,0.3610724233983287,0.029106320871224875
-0.3249,0.1604,0.1052,0.9869428969359331,0.07955821264174244
0.4182,-0.0414,-0.0603,0.0,0.0
0.4129,0.1175,-0.2224,0.0,0.0
-0.0264,-0.2414,-0.2638,0.0,0.0
0.1833,-0.2414,-0.1293,0.0,0.0
-0.1875,0.1291,-0.3542,1.0330779944289694,0.08327719770966655
0.0342,-0.1464,-0.3277,0.0,0.0
-0.1257,0.1586,-0.3947,0.19533426183844013,0.01574604243853149
-0.1087,0.1586,0.3782,0.0,0.0
0.5489,-0.1917,0.6637,0.0,0.0
0.3561,-0.0773,-0.2233,0.0,0.0
0.3909,-0.0891,-0.2223,0.0,0.0
0.4908,-0.1973,-0.191,0.0,0.0
-0.1882,0.1093,0.6071,0.0,0.0
0.1176,0.1586,-0.0775,0.0,0.0
-0.3614,0.0975,0.0307,0.0,0.0
-0.1848,0.045,0.3513,0.0,0.0
-0.1581,0.2107,0.6106,0.0,0.0
-0.1008,-0.1421,0.5623,0.0,0.0
-0.1581,-0.1101,0.6156,0.0,0.0
-0.1836,-0.1689,0.5844,6.492513927576601,0.5233664533512966
0.3874,-0.0392,0.6133,0.0,0.0
-0.1858,0.0323,0.7489,0.0,0.0
-0.038,-0.2414,-0.044,0.0,0.0
-0.2357,-0.074,0.2766,0.0,0.0
-0.0864,-0.0414,0.42,0.9190459610027855,0.0740849893342315
-0.1515,0.0753,0.559,1.0706824512534818,0.0863085213876726
-0.1334,0.0989,0.5113,0.0,0.0
-0.1797,0.0053,-0.403,0.0,0.0
-0.055,0.0905,0.3003,0.0,0.0
-0.0381,0.0494,-0.4349,0.2376392757660167,0.01915628157628831
-0.2624,-0.0292,0.142,0.0,0.0
-0.163,0.1912,0.7345,0.0,0.0
-0.1899,0.1838,0.5465,0.0,0.0
-0.0046,0.0479,-0.359,0.0,0.0
0.1378,0.1387,-0.2693,0.0,0.0
-0.12,0.1586,0.2248,0.0,0.0
-0.1301,-0.1634,-0.5633,0.3501044568245126,0.02822218479847311
-0.1621,0.0507,0.5104,0.0,0.0
-0.1709,0.2414,0.4414,0.0,0.0
0.2915,-0.0414,-0.0355,0.0,0.0
0.5121,-0.0896,0.6428,0.0,0.0
-0.0593,-0.0444,0.3109,0.8847493036211699,0.07132030986864263
-0.0073,0.1586,-0.0639,0.0,0.0
0.1355,-0.2165,-0.2703,0.0,0.0
-0.255,-0.0567,0.1548,0.0,0.0
-0.1588,0.196,0.5723,0.0,0.0
-0.1922,0.1804,0.3196,0.0,0.0
-0.0376,0.1586,-0.102,0.0,0.0
-0.2303,-0.1304,0.294,0.0,0.0
-0.0345,0.1886,-0.0331,0.7533077994428969,0.06072471090153811
0.162,-0.2414,0.4142,0.0,0.0
0.6363,0.0594,-0.2815,0.0,0.0
0.0116,-0.1222,0.531,0.0,0.0
-0.1124,-0.1635,0.5648,0.0,0.0
-0.3351,-0.1809,0.0518,0.0,0.0
-0.0957,-0.197,0.5609,0.0,0.0
0.3731,-0.2414,0.2671,0.0,0.0
0.2166,-0.0414,0.341,0.1937674094707521,0.01561973728528124
-0.1828,0.1886,-0.0343,0.9566504178272981,0.07711631301223756
0.0929,-0.0414,0.2649,0.0,0.0
0.0459,0.0609,-0.3194,0.0,0.0
0.364,-0.1154,-0.1295,0.0,0.0
-0.1438,0.1886,0.6187,0.0,0.0
0.446,-0.2414,-0.0013,0.0,0.0
0.3589,0.1953,-0.2231,0.0,0.0
-0.028,0.1673,-0.4238,0.0,0.0
-0.2104,-0.1905,0.3754,0.5440459610027856,0.04385595598967104
0.016,0.1586,-0.037,0.0,0.0
-0.1409,0.0082,-0.5232,0.0,0.0
0.2465,-0.2406,0.5186,0.0,0.0
-0.1561,-0.0942,0.5706,0.0,0.0
-0.0452,0.1371,-0.3983,0.0,0.0
0.5849,-0.2114,-0.237,0.0,0.0
0.0115,-0.2397,0.5306,0.0,0.0
0.0227,-0.0537,-0.3751,0.0,0.0
0.2347,0.1586,-0.1181,0.0,0.0
0.2522,-0.1412,-0.0679,0.0,0.0
0.2187,0.1886,-0.1805,0.0,0.0
-0.1711,-0.1797,0.4281,0.0,0.0
0.0356,0.0688,-0.3645,0.0,0.0
-0.185,0.0079,-0.6014,0.19846796657381618,0.015998652745031997
0.1108,0.1586,0.0641,0.0,0.0
0.0289,-0.1455,0.5264,0.0,0.0
-0.1478,0.0533,-0.5344,0.1937674094707521,0.01561973728528124
-0.2033,0.1886,-0.2915,0.1937674094707521,0.01561973728528124
0.2645,-0.0414,-0.0313,0.0,0.0
0.3266,-0.2414,0.3999,0.0,0.0
-0.0349,-0.1979,0.2542,0.0,0.0
0.199,-0.0414,0.2212,0.0,0.0
-0.0383,-0.0414,0.4585,0.0,0.0
-0.3915,-0.0937,0.0123,0.0,0.0
0.2664,0.1641,-0.2328,0.0,0.0
0.6266,0.0127,-0.2486,0.5470055710306407,0.044094532390254855
-0.0688,-0.1573,0.3349,0.0,0.0
-0.2149,-0.1277,0.2446,0.0,0.0
-0.0785,-0.1182,-0.436,0.0,0.0
0.4914,-0.1358,-0.2269,0.0,0.0
-0.031,-0.0091,0.2454,0.0,0.0
-0.2252,-0.1182,0.2178,0.0,0.0
-0.0479,0.1539,-0.4462,0.0,0.0
-0.1303,-0.2414,-0.0181,0.0,0.0
-0.1913,0.1242,-0.6858,0.0,0.0
-0.0632,-0.0934,0.5511,0.0,0.0
-0.1931,0.0151,0.4998,0.0,0.0
0.4389,0.1886,-0.1839,0.0,0.0
0.2555,0.2414,-0.2465,0.0,0.0
-0.1588,-0.0654,0.5726,0.0,0.0
-0.1081,0.1586,-0.3235,0.0,0.0
-0.4737,0.1405,-0.0167,0.0,0.0
0.3839,-0.0414,0.1839,0.0,0.0
-0.173,0.1558,-0.645,0.0,0.0
-0.2625,-0.0827,0.2067,0.0,0.0
0.3907,-0.2414,0.4634,0.0,0.0
-0.0048,0.1586,-0.2203,0.0,0.0
-0.3689,0.0166,0.0257,0.0,0.0
-0.1827,-0.0392,0.588,0.0,0.0
0.3338,-0.2414,0.2678,0.0,0.0
0.1936,-0.2396,-0.2496,0.0,0.0
-0.1753,0.0916,-0.4666,0.48763927576601673,0.03930897047266195
-0.1218,0.1586,-0.4741,0.0,0.0
-0.1163,0.2414,-0.517,0.0,0.0
-0.1461,0.1586,0.444,0.0,0.0
0.5539,-0.0996,0.6651,0.0,0.0
0.4363,0.017,-0.2531,0.0,0.0
-0.5431,0.1886,-0.0549,0.0,0.0
0.2458,0.0091,-0.0643,0.0,0.0
-0.4009,0.1756,0.0073,0.42513927576601673,0.03427079824856854
-0.0593,0.044,-0.46,0.0,0.0
0.0881,0.0589,-0.2932,0.0,0.0
-0.6675,-0.0558,-0.0195,0.0,0.0
-0.177,0.0762,0.3908,0.0,0.0
-0.1754,-0.1394,-0.4636,0.0,0.0
-0.3825,0.1586,-0.0602,0.0,0.0
0.5155,-0.1226,-0.2028,0.0,0.0
0.2924,0.067,-0.0917,0.7721100278551533,0.062240372740541144
-0.1754,0.2414,0.4091,0.0,0.0
-0.0458,-0.0061,0.2791,0.0,0.0
-0.1225,-0.0918,-0.5505,0.2141364902506964,0.017261704277534522
0.0373,0.0938,0.1243,0.5548398328690808,0.04472605815650611
0.5568,0.0125,-0.223,1.014449860724234,0.08177556977658021
0.1713,-0.0128,-0.2568,0.0,0.0
0.3011,-0.1048,-0.2278,0.0,0.0
-0.1579,-0.0091,-0.6142,0.20786908077994432,0.016756483664533514
-0.2219,0.1334,0.2256,0.0,0.0
-0.2687,-0.146,0.1935,0.0,0.0
0.1725,-0.0414,0.249,0.0,0.0
0.2364,-0.0414,0.2281,0.0,0.0
-0.1851,0.234,0.3498,0.3642061281337047,0.029358931177725377
-0.5336,-0.0232,-0.0332,0.0,0.0
-0.0789,-0.2118,0.3615,0.0,0.0
-0.0471,0.1886,-0.2541,0.0,0.0
-0.1254,0.1757,0.5745,0.0,0.0
-0.1702,0.1385,-0.6391,0.0,0.0
0.7357,0.1178,-0.2778,1.5285515320334264,0.12321769394857977
0.7374,-0.1307,-0.3098,0.0,0.0
0.0871,0.0135,-0.2938,0.0,0.0
0.4065,0.1586,-0.1632,0.0,0.0
0.3025,0.1586,-0.15,0.0,0.0
0.2452,0.0335,-0.2368,0.0,0.0
-0.542,0.0497,-0.0314,0.9719707520891365,0.0783512967329067
-0.0726,0.1586,0.1456,0.0,0.0
0.0262,-0.2414,-0.0003,0.0,0.0
0.3023,-0.0129,0.5392,0.0,0.0
-0.1631,0.1586,0.093,0.0,0.0
0.3956,-0.2414,0.472,0.0,0.0
0.4765,-0.0453,0.0439,0.0,0.0
0.2992,0.0893,-0.228,0.0,0.0
-0.0011,-0.2185,-0.3561,0.0,0.0
0.0306,-0.2414,0.2226,0.0,0.0
0.186,-0.1137,0.5056,0.0,0.0
-0.1684,-0.071,0.448,0.0,0.0
0.0333,-0.2414,0.0692,0.0,0.0
-0.2092,0.0048,-0.6518,0.0,0.0
-0.1821,-0.1222,-0.5955,0.0,0.0
-0.7811,-0.1307,0.0331,0.3579387186629527,0.028853710564724373
-0.1703,0.1444,0.4336,0.0,0.0
-0.2408,0.0407,-0.7297,0.0,0.0
-0.211,0.1705,-0.5773,0.2360724233983287,0.01902997642303806
-0.779,-0.2056,0.0017,0.0,0.0
-0.6354,-0.0399,-0.0231,0.19063370473537605,0.015367126978780734
0.0345,-0.0248,-0.3276,0.0,0.0
-0.1831,-0.0191,0.3591,0.0,0.0
-0.165,-0.0716,0.4778,0.0,0.0
-0.0169,0.0208,-0.4121,0.0,0.0
0.228,-0.2414,-0.1688,0.0,0.0
0.2798,0.1586,-0.0913,0.3610724233983287,0.029106320871224875
-0.1818,-0.1703,0.5826,6.683147632311978,0.5387335803300775
0.3765,-0.13,-0.1358,0.0,0.0
-0.0855,-0.1718,-0.4944,0.0,0.0
-0.5043,0.1172,-0.022,0.47980501392757663,0.038677444706410685
-0.1977,-0.0371,0.2986,0.0,0.0
0.4762,0.0093,-0.2256,0.0,0.0
-0.1929,-0.0612,-0.6897,1.1674791086350977,0.0941113730773549
-0.1389,-0.2414,0.5481,0.0,0.0
0.4201,-0.2251,-0.2226,0.0,0.0
0.3082,-0.1483,0.5349,0.0,0.0
-0.0861,-0.2414,0.0436,0.0,0.0
-0.0723,0.1886,-0.3835,0.0,0.0
0.5656,0.0604,-0.2367,0.0,0.0
0.0557,0.1586,-0.1922,0.0,0.0
0.5061,-0.1689,-0.2285,0.0,0.0
-0.5711,-0.1404,-0.0262,0.0,0.0
-0.1727,-0.0797,0.4171,0.0,0.0
-0.0478,0.1586,0.1755,0.19533426183844013,0.01574604243853149
0.0445,0.1886,-0.1421,0.0,0.0
-0.0625,0.1586,-0.278,0.0,0.0
-0.1422,-0.0676,0.573,0.0,0.0
0.4116,-0.0414,0.5166,0.3642061281337047,0.029358931177725377
-0.0102,0.0213,-0.3641,0.0,0.0
-0.1907,0.1567,0.3258,0.0,0.0
-0.1581,-0.2105,0.6243,0.0,0.0
0.0775,0.148,-0.3344,0.0,0.0
-0.1631,-0.1851,0.4987,0.19063370473537605,0.015367126978780734
0.3881,0.1886,-0.1196,0.0,0.0
-0.0342,0.0678,0.2523,0.19220055710306408,0.015493432132030987
0.1148,-0.0569,0.0345,0.20003481894150418,0.01612495789828225
-0.1462,0.1886,0.5741,0.0,0.0
-0.1598,0.0408,0.6868,1.7816852367688023,0.1436229931514539
-0.1588,-0.0677,0.6611,0.0,0.0
0.6788,0.1925,-0.2612,0.0,0.0
0.0704,-0.0048,-0.3035,0.0,0.0
-0.1759,-0.222,0.3972,0.0,0.0
-0.1487,0.1886,-0.3261,0.0,0.0
-0.253,0.1586,-0.2343,0.0,0.0
-0.0765,-0.099,-0.4336,0.0,0.0
-0.1429,-0.0005,0.5729,1.0409122562674094,0.0839087234759178
-0.0559,-0.2071,0.3026,0.0,0.0
-0.2269,0.1243,0.2135,0.0,0.0
-0.0347,0.1586,-0.0084,0.0,0.0
-0.3282,-0.0142,0.1013,0.0,0.0
-0.1934,0.1077,0.3149,0.0,0.0
0.106,0.0974,-0.2838,0.0,0.0
0.0999,-0.119,-0.3209,0.0,0.0
0.3055,0.1005,-0.2273,0.0,0.0
0.3431,-0.0414,0.1662,0.0,0.0
-0.1405,-0.026,0.5291,0.750174094707521,0.06047210059503762
0.1453,-0.2414,0.1545,0.7252785515320335,0.05846525204895026
0.5906,-0.2414,0.6988,0.21883704735376044,0.017640619737285278
0.4268,-0.0414,0.5771,0.0,0.0
-0.1788,0.0059,-0.5596,0.3610724233983287,0.029106320871224875
-0.2553,0.1586,-0.1543,0.0,0.0
0.3254,-0.1309,-0.1096,0.0,0.0
0.0519,0.1445,0.1041,0.4860724233983287,0.03918266531941169
0.1106,0.0357,-0.2815,0.0,0.0
-0.7135,-0.0869,-0.0122,0.35950557103064074,0.02898001571797463
-0.1881,-0.1775,0.6092,3.9136490250696387,0.3154822050072977
-0.033,-0.2414,-0.0248,0.0,0.0
-0.3153,0.2414,0.0796,0.8283426183844013,0.06677332435163355
-0.289,0.1849,0.1558,3.991817548746519,0.3217834287638936
-0.0052,0.1586,-0.2707,0.0,0.0
-0.1212,0.1586,0.127,0.0,0.0
0.4919,-0.11,0.6317,0.0,0.0
0.5719,0.1586,-0.2363,0.0,0.0
-0.4162,-0.1809,0.0006,0.0,0.0
-0.2397,-0.1957,0.1844,0.0,0.0
0.5658,-0.2044,-0.2368,0.0,0.0
0.436,-0.1143,0.2445,4.098015320334262,0.33034411137307734
0.5066,0.0411,-0.2285,0.0,0.0
-0.0289,-0.2118,0.2409,0.0,0.0
-0.3227,-0.1367,0.0634,0.0,0.0
-0.1658,-0.1219,0.4701,0.0,0.0
-0.3444,0.0455,0.0842,0.0,0.0
-0.1757,-0.0673,-0.5132,0.0,0.0
-0.0691,-0.1404,0.3358,0.0,0.0
0.1696,-0.213,-0.012,0.0,0.0
0.1552,-0.0414,0.43,0.0,0.0
-0.4414,0.1624,-0.0915,0.8220752089136492,0.06626810373863254
-0.1911,0.1059,-0.6134,0.3579387186629527,0.028853710564724373
-0.2523,0.1886,-0.0341,0.19220055710306408,0.015493432132030987
0.2676,-0.0471,0.5576,0.0,0.0
-0.6609,0.1886,-0.0374,0.0,0.0
0.4687,0.0271,-0.225,0.0,0.0
-0.1881,0.0879,0.6112,0.0,0.0
-0.0559,-0.2414,0.4988,0.0,0.0
-0.0274,-0.1209,0.2378,0.0,0.0
-0.514,-0.034,-0.0231,0.0,0.0
-0.0618,0.1586,-0.3884,0.0,0.0
0.2785,0.048,-0.2309,0.0,0.0
0.155,-0.0724,-0.0005,0.0,0.0
0.5902,-0.0198,-0.2411,0.0,0.0
0.4087,-0.12,0.5855,0.0,0.0
0.1097,-0.0835,0.0395,0.0,0.0
-0.1009,-0.1699,-0.4647,0.0,0.0
0.1189,-0.0601,-0.2776,0.0,0.0
0.1654,-0.1792,-0.2587,0.0,0.0
-0.0219,-0.2414,0.546,0.0,0.0
-0.2239,0.0719,0.3166,0.0,0.0
0.2448,-0.0414,0.3139,0.0,0.0
0.359,0.1417,-0.2531,0.0,0.0
0.0629,-0.2414,0.4204,0.0,0.0
-0.1736,-0.102,0.4112,0.0,0.0
0.0724,-0.1886,-0.3024,0.0,0.0
0.0809,-0.0414,0.2246,0.39397632311977715,0.03175872908948018
0.2451,-0.083,-0.0636,0.0,0.0
0.1193,-0.1448,-0.3107,0.0,0.0
-0.2207,0.044,-0.6785,0.0,0.0
-0.3421,0.0082,-0.1087,0.0,0.0
0.3848,-0.2089,-0.14,0.0,0.0
0.1016,0.0995,-0.32,0.0,0.0
-0.4932,-0.0946,-0.0204,0.0,0.0
-0.2216,0.1586,-0.3133,1.566155988857939,0.12624901762658583
-0.1634,-0.0214,0.4951,0.0,0.0
-0.1582,0.2226,0.6016,0.0,0.0
-0.2854,-0.2414,-0.014,0.0,0.0
-0.2555,0.0061,0.1538,0.0,0.0
0.4727,-0.0823,-0.2554,0.0,0.0
0.0067,-0.0414,0.2573,0.0,0.0
0.0911,0.102,-0.2915,0.0,0.0
0.1019,0.0026,-0.2859,0.0,0.0
0.311,-0.1047,0.5758,0.0,0.0
0.1541,0.1586,-0.2159,0.0,0.0
-0.3405,0.1347,0.0471,0.0,0.0
0.4406,-0.1601,-0.2533,0.0,0.0
-0.4537,-0.0632,-0.0121,0.0,0.0
-0.1144,0.1586,0.1104,0.19220055710306408,0.015493432132030987
0.3154,-0.0873,-0.2564,0.4923398328690808,0.0396878859324127
0.3314,0.0464,-0.2549,0.3657729805013928,0.029485236330975637
-0.0981,0.1886,-0.3142,0.0,0.0
0.2694,0.1574,-0.2627,1.9942548746518107,0.16075839227573818
-0.1661,-0.002,0.4674,0.0,0.0
-0.0546,-0.1077,0.3,0.0,0.0
-0.0529,-0.2414,0.1205,0.0,0.0
0.2786,-0.0019,-0.2309,0.0,0.0
0.1436,0.147,-0.2994,0.0,0.0
-0.1634,-0.0627,0.4948,0.0,0.0
-0.1822,-0.124,0.3636,0.0,0.0
-0.3136,0.1886,-0.0437,0.19063370473537605,0.015367126978780734
0.393,-0.2414,0.0558,0.2360724233983287,0.01902997642303806
0.4588,-0.0901,-0.2243,0.0,0.0
-0.2217,0.0066,0.3253,0.0,0.0
0.4975,-0.0291,0.6374,0.0,0.0
0.255,-0.0414,0.4633,0.9190459610027853,0.07408498933423148
-0.1695,0.181,-0.572,0.0,0.0
-0.1776,-0.1888,0.3874,0.0,0.0
-0.0734,0.1586,0.3443,0.0,0.0
-0.0379,-0.2414,0.0066,0.0,0.0
-0.3341,-0.1436,0.0526,0.0,0.0
-0.0264,0.1586,0.1944,0.38596796657381616,0.031113169417312223
-0.0661,-0.2414,0.1673,0.2454735376044568,0.01978780734253957
-0.46,-0.0036,-0.0136,0.0,0.0
0.0208,-0.2414,0.2243,0.0,0.0
-0.4082,0.1867,0.0372,0.40790389972144847,0.03288144156281576
-0.096,-0.2279,0.408,0.0,0.0
-0.2153,0.0463,0.3521,0.0,0.0
-0.1333,-0.2414,0.5397,0.0,0.0
-0.179,-0.0079,-0.5615,0.3610724233983287,0.029106320871224875
0.467,-0.1725,0.0786,0.0,0.0
0.6948,-0.0334,-0.2968,0.0,0.0
0.0036,-0.1049,-0.3519,0.0,0.0
0.1469,0.0826,-0.298,0.0,0.0
0.3837,-0.1553,-0.2225,0.0,0.0
-0.6377,-0.0383,0.0073,0.0,0.0
-0.1595,-0.1082,0.5554,0.0,0.0
0.0467,0.1886,-0.2369,0.19063370473537605,0.015367126978780734
0.2309,0.2406,-0.2707,0.4282729805013928,0.034523408555069045
0.7913,-0.2369,-0.2991,0.0,0.0
0.4348,-0.1044,0.2553,8.319637883008356,0.6706522959470079
0.2398,-0.2204,-0.0604,0.0,0.0
0.2282,-0.2414,0.4382,0.0,0.0
-0.0908,0.1586,-0.3064,0.0,0.0
-0.1155,0.0435,-0.5391,3.436977715877437,0.2770573706073874
0.026,0.1586,-0.0438,0.0,0.0
-0.1752,0.028,-0.496,0.0,0.0
-0.1067,0.1886,0.2481,0.22667130919220058,0.018272145503536542
0.5294,-0.0632,-0.2095,0.0,0.0
-0.2945,-0.0642,0.0951,0.0,0.0
-0.1622,-0.1407,0.5103,0.0,0.0
-0.0987,-0.2414,0.1337,0.0,0.0
0.1353,0.1206,-0.2703,0.0,0.0
-0.1906,-0.0843,0.326,0.0,0.0
0.1028,0.1586,-0.2107,0.0,0.0
0.5634,-0.1972,-0.2262,0.0,0.0
0.58,0.0099,-0.2392,0.7360724233983288,0.05933535421578534
-0.2127,-0.1409,-0.74,4.509052924791087,0.3634781632423936
-0.1806,-0.0692,-0.3964,0.0,0.0
-0.523,0.1554,-0.0241,0.0,0.0
0.6745,-0.0295,-0.2601,0.0,0.0
0.7377,0.1366,-0.2784,0.0,0.0
-0.1606,0.089,0.533,0.0,0.0
-0.2306,0.1886,0.0134,0.0,0.0
-0.2263,0.132,0.308,0.7143105849582173,0.05758111597619849
-0.2076,0.1886,-0.0443,0.5517061281337048,0.044473447850005614
-0.4539,-0.0186,0.019,1.067548746518106,0.08605591108117211
-0.0117,-0.2414,0.304,0.0,0.0
-0.1595,-0.152,0.6792,0.0,0.0
-0.2339,0.1562,-0.7449,0.0,0.0
0.2356,-0.2414,0.4047,0.0,0.0
-0.6851,0.0261,-0.017,0.0,0.0
-0.2527,0.0825,0.159,0.0,0.0
-0.0414,-0.1981,-0.3944,0.0,0.0
-0.0152,0.1586,-0.1942,0.0,0.0
0.2274,0.0621,-0.0526,0.697075208913649,0.05619175929044571
-0.1774,-0.141,-0.5866,0.0,0.0
0.1136,-0.0414,0.374,1.8239902506963788,0.14703323228921072
-0.0538,0.1504,-0.4075,0.0,0.0
0.0283,-0.0944,-0.3321,0.0,0.0
0.7692,0.107,-0.2889,4.402855153203343,0.3549174806332098
-0.099,0.1653,-0.4622,0.0,0.0
0.4445,-0.2114,0.1831,0.0,0.0
0.3805,-0.2414,-0.1,0.0,0.0
0.2766,0.0408,-0.0827,1.3535863509749304,0.10911361850230156
-0.0774,-0.0414,0.5342,0.0,0.0
0.1172,0.1586,0.0412,0.0,0.0
0.3899,0.1886,-0.1688,0.0,0.0
0.0737,0.1586,-0.2307,0.0,0.0
0.7308,-0.1401,-0.3077,0.0,0.0
-0.1894,-0.0154,0.3312,0.0,0.0
-0.1478,-0.1631,-0.5345,0.0,0.0
-0.0197,-0.2414,-0.0073,0.0,0.0
0.4417,-0.0414,0.5148,0.0,0.0
-0.1076,0.1601,-0.4739,0.0,0.0
-0.1925,0.0466,0.7272,0.0,0.0
0.1596,0.0418,-0.0041,0.3563718662952646,0.02872740541147412
-0.405,0.1001,0.0055,0.0,0.0
0.4706,0.0721,-0.1814,0.0,0.0
0.2839,-0.2414,0.1339,0.0,0.0
0.0973,-0.0414,0.1723,0.5269846796657381,0.04248063320983495
-0.2401,0.0536,0.1836,0.0,0.0
-0.2999,0.0682,0.0884,0.0,0.0
-0.3001,0.1589,0.0881,0.19063370473537605,0.015367126978780734
0.5467,0.0889,-0.2179,0.0,0.0
0.5926,0.1371,-0.2721,0.0,0.0
0.2805,-0.018,-0.0849,0.0,0.0
-0.2834,-0.1203,0.1098,0.0,0.0
0.4674,-0.145,0.5432,1.2902158774373258,0.10400527674862466
-0.0524,-0.2051,0.2941,0.0,0.0
0.011,-0.1949,0.5308,0.0,0.0
0.0544,-0.0844,-0.3137,0.0,0.0
-0.3523,-0.1318,0.0374,0.0,0.0
-0.3362,0.0706,0.0508,0.0,0.0
0.5056,-0.117,-0.1981,0.0,0.0
-0.5087,-0.0656,-0.0225,0.0,0.0
0.059,0.1586,-0.2876,0.0,0.0
0.4689,-0.1546,0.0717,0.4923398328690808,0.0396878859324127
0.5056,0.1644,-0.2284,0.0,0.0
-0.3597,0.1586,0.0211,0.0,0.0
0.5883,-0.1699,0.7047,0.0,0.0
-0.227,-0.1674,0.2132,0.0,0.0
0.3525,-0.2414,-0.1066,0.0,0.0
0.3749,-0.0414,0.0911,0.0,0.0
0.448,-0.2414,0.1055,0.0,0.0
0.5392,0.1523,-0.2328,0.0,0.0
0.0937,0.1061,0.0561,0.0,0.0
-0.2821,-0.2001,0.1116,0.0,0.0
-0.1402,-0.2414,-0.5164,0.0,0.0
0.0517,0.0335,0.1041,0.0,0.0
-0.1825,-0.0834,0.5892,0.0,0.0
-0.112,-0.1942,-0.5336,0.19533426183844013,0.01574604243853149
-0.1321,0.1586,0.416,0.0,0.0
-0.1919,-0.0186,0.5155,0.0,0.0
0.4482,-0.0515,-0.2537,0.0,0.0
0.3237,-0.0414,0.118,0.0,0.0
-0.2316,0.0741,-0.7054,0.0,0.0
0.4405,-0.1117,0.6074,0.0,0.0
0.3062,-0.2414,-0.0998,0.0,0.0
-0.2564,-0.0549,0.1522,0.0,0.0
-0.0473,0.1886,0.1539,0.4267061281337048,0.03439710340181879
0.0434,-0.0414,0.4144,0.0,0.0
0.3868,-0.0414,0.5509,0.0,0.0
-0.1899,0.0566,0.5471,0.0,0.0
0.2892,-0.1076,0.5338,0.0,0.0
-0.2035,-0.2414,0.0312,0.0,0.0
-0.2802,-0.2142,-0.1601,0.0,0.0
0.063,0.1586,-0.1463,0.0,0.0
0.1355,0.1886,-0.0097,0.5642409470752089,0.04548388907600763
-0.0774,-0.0257,0.3577,0.0,0.0
-0.1007,0.1652,-0.4644,0.0,0.0
-0.1633,-0.0635,-0.5609,0.0,0.0
-0.246,0.1763,-0.2668,0.0,0.0
-0.1681,-0.0903,-0.5696,0.0,0.0
-0.262,0.1586,0.0876,0.0,0.0
-0.172,-0.0355,-0.6429,0.0,0.0
0.0377,-0.0098,0.1234,0.2517409470752089,0.020293027955540582
0.1589,-0.2414,0.0706,0.0,0.0
-0.1753,0.1009,-0.4997,0.6798398328690808,0.054802402604692935
-0.1852,-0.0576,0.3493,0.0,0.0
-0.1581,0.0333,0.6215,0.40807799442896936,0.032895475468732456
0.2918,-0.2414,0.4373,0.0,0.0
-0.1638,0.1586,0.3374,0.0,0.0
-0.1699,0.2109,0.4371,0.0,0.0
0.0918,-0.0687,0.0574,0.0,0.0
-0.1345,0.1138,-0.5709,0.0,0.0
-0.0604,0.1614,0.3977,0.0,0.0
0.4875,-0.0321,-0.1894,0.0,0.0
0.4937,0.1369,-0.1924,0.0,0.0
-0.1841,0.1795,-0.5995,0.0,0.0
0.4026,-0.2414,0.0895,0.0,0.0
-0.0527,-0.2414,0.5065,0.0,0.0
0.0625,-0.1331,0.549,0.5517061281337048,0.044473447850005614
-0.2396,-0.1872,0.1846,0.0,0.0
-0.1514,-0.2414,0.3086,0.0,0.0
-0.1961,-0.0192,-0.3179,0.4892061281337048,0.0394352756259122
-0.1798,0.0265,-0.5911,0.0,0.0
0.3253,0.1063,-0.1096,1.720926183844011,0.13872515998652743
0.0387,0.1586,-0.1645,0.0,0.0
0.2248,-0.0414,0.3111,0.0,0.0
0.3684,-0.2414,0.1626,0.0,0.0
-0.1009,-0.2414,0.2843,0.0,0.0
0.0739,-0.1773,0.0772,0.0,0.0
-0.0106,-0.154,0.5365,0.0,0.0
-0.2729,-0.0344,0.1851,0.0,0.0
0.1812,-0.2414,0.1156,0.7268454038997214,0.05859155720220051
0.0301,-0.0672,0.1353,0.0,0.0
-0.0565,0.1586,-0.2177,0.0,0.0
-0.2042,-0.0813,0.4098,0.0,0.0
-0.1849,0.2377,0.3509,0.3642061281337047,0.029358931177725377
-0.7869,-0.0973,0.025,0.7346796657381616,0.05922308296845177
-0.0451,-0.2414,-0.0345,0.0,0.0
0.3369,-0.2289,0.5879,0.36263927576601673,0.02923262602447513
0.5438,-0.123,0.6598,0.0,0.0
0.026,0.1586,-0.2647,0.0,0.0
-0.2605,0.0923,0.145,0.0,0.0
-0.0986,0.1586,-0.4399,0.0,0.0
0.2533,0.0309,-0.0687,1.2050835654596102,0.09714269675536095
-0.1948,-0.02,0.4817,0.0,0.0
0.0951,0.1319,-0.2894,0.0,0.0
0.3442,-0.2414,0.1372,0.0,0.0
-0.2057,-0.1758,-0.6442,0.0,0.0
-0.1665,0.1886,-0.4252,0.0,0.0
0.1327,-0.2414,0.3773,0.0,0.0
-0.0289,0.1586,0.0747,0.0,0.0
-0.1576,-0.2414,0.1785,0.0,0.0
-0.1401,0.1886,-0.1301,0.0,0.0
0.2774,-0.1437,-0.2614,0.0,0.0
0.4599,-0.0653,0.1073,0.0,0.0
-0.1583,-0.0143,-0.5522,0.3610724233983287,0.029106320871224875
-0.2626,0.1586,-0.1869,1.011142061281337,0.08150892556416302
-0.0387,0.1502,-0.4356,0.0,0.0
-0.4912,-0.0491,0.0104,0.0,0.0
-0.1264,-0.1211,0.4922,0.0,0.0
-0.5967,-0.0797,-0.0256,0.0,0.0
-0.4456,-0.217,-0.0096,0.0,0.0
0.5333,-0.1152,0.6559,0.0,0.0
0.3781,-0.0414,0.3596,0.811107242339833,0.06538396766588077
-0.2103,0.1595,-0.6545,0.0,0.0
-0.283,0.1062,0.1103,0.0,0.0
0.144,-0.2414,0.3024,0.0,0.0
-0.1309,0.0805,0.5048,0.0,0.0
-0.2583,-0.2414,-0.0141,0.0,0.0
-0.3384,-0.0542,0.0488,0.0,0.0
-0.2764,0.1784,-0.2124,0.0,0.0
-0.1711,0.23,-0.5749,0.0,0.0
-0.3459,0.1586,-0.0872,0.895717270194986,0.0722044459413944
-0.1571,-0.0526,0.573,0.0,0.0
0.4315,-0.0381,-0.2229,0.0,0.0
-0.3575,0.0221,-0.099,0.0,0.0
-0.0743,-0.0063,-0.431,0.0,0.0
-0.1805,-0.2414,0.0458,0.0,0.0
0.0805,0.1586,-0.1023,0.0,0.0
0.0232,-0.0414,0.1852,1.9178272980501392,0.15459750757830917
-0.6992,0.236,-0.0147,0.0,0.0
-0.163,-0.1766,0.4998,0.19063370473537605,0.015367126978780734
0.065,0.1403,0.0885,0.0,0.0
0.2647,-0.1389,-0.0756,0.0,0.0
-0.4097,-0.1839,-0.0721,0.0,0.0
0.2484,0.1079,-0.2362,0.0,0.0
-0.1406,-0.2414,-0.1236,0.0,0.0
0.2446,-0.1737,0.518,0.19063370473537605,0.015367126978780734
-0.0899,-0.1539,-0.4504,0.0,0.0
0.0808,0.0362,-0.2974,0.0,0.0
0.4517,0.0137,-0.1724,0.0,0.0
-0.1651,-0.0398,0.4775,0.0,0.0
0.2504,0.1586,-0.2172,0.0,0.0
-0.3594,-0.0976,0.0322,0.0,0.0
0.1275,-0.0729,-0.2737,0.0,0.0
-0.1929,0.0509,-0.6897,0.0,0.0
0.6784,0.1504,-0.2922,0.0,0.0
-0.2153,-0.1831,0.3522,0.0,0.0
-0.183,-0.2366,0.36,0.0,0.0
-0.2994,-0.0533,0.0891,0.0,0.0
-0.2634,-0.0108,0.1403,0.0,0.0
-0.1925,0.1859,0.5064,0.0,0.0
-0.109,0.1586,-0.2593,0.0,0.0
-0.1971,-0.2414,0.0136,0.0,0.0
0.3606,-0.0414,-0.0983,0.0,0.0
-0.221,-0.1373,0.3282,0.0,0.0
-0.5664,-0.0712,0.0039,0.0,0.0
0.3292,0.1886,-0.0919,0.0,0.0
-0.6429,0.1045,-0.0224,0.0,0.0
0.3221,-0.014,-0.1077,0.0,0.0
0.41,-0.1988,-0.2225,0.0,0.0
0.4199,-0.0414,-0.1244,0.0,0.0
0.3724,-0.0414,0.4661,0.0,0.0
-0.2106,0.1586,0.2395,0.0,0.0
-0.74,-0.0861,0.0236,0.0,0.0
-0.1376,-0.0525,0.5214,0.0,0.0
-0.2058,0.0688,0.4004,0.0,0.0
-0.6566,0.235,-0.0208,0.0,0.0
-0.2438,0.2414,0.2284,0.23920612813370473,0.019282586729538562
-0.0257,-0.1584,-0.3785,0.0,0.0
0.2281,0.0729,-0.0526,0.697075208913649,0.05619175929044571
-0.5668,-0.2192,-0.0261,0.0,0.0
0.1625,0.1586,-0.1656,0.0,0.0
-0.6901,0.1853,-0.0379,0.0,0.0
-0.1669,0.1586,0.174,0.0,0.0
-0.059,0.1886,-0.1513,0.0,0.0
0.1103,0.1586,-0.0378,0.0,0.0
-0.169,-0.2154,0.6104,0.6157729805013928,0.04963792522734928
0.3855,-0.0722,-0.1403,0.0,0.0
0.2139,0.1586,-0.1821,0.0,0.0
0.3478,-0.0414,0.5348,0.0,0.0
-0.2242,-0.2414,0.1106,0.0,0.0
-0.1963,-0.0156,0.4675,0.0,0.0
0.2625,-0.2414,0.3488,0.0,0.0
-0.0289,0.0625,-0.3816,0.0,0.0
-0.012,-0.0111,0.2065,1.1753133704735377,0.09474289884360615
-0.115,-0.2396,0.4607,0.0,0.0
-0.1886,-0.1304,0.5813,0.0,0.0
0.185,0.1886,-0.19,0.0,0.0
-0.1617,0.0899,0.516,0.0,0.0
-0.1603,-0.0805,0.5393,0.0,0.0
-0.3968,0.1676,-0.1114,1.076949860724234,0.08681374200067363
-0.1951,-0.1269,0.3085,0.0,0.0
0.37,-0.0894,0.6044,0.0,0.0
-0.1618,-0.0554,-0.5582,0.0,0.0
0.0087,-0.2414,0.0092,0.0,0.0
0.2673,0.1586,-0.2137,0.0,0.0
0.3238,0.1886,-0.1306,0.0,0.0
-0.1696,-0.1011,0.4391,0.0,0.0
-0.2338,-0.0843,0.1973,0.0,0.0
-0.0939,0.1586,-0.2766,0.0,0.0
-0.2436,0.2292,-0.7371,0.0,0.0
-0.1787,0.0835,0.3817,0.0,0.0
-0.0605,-0.2015,0.5815,0.4204387186629527,0.03389188278881778
0.2236,0.1886,-0.1155,0.0,0.0
-0.138,-0.1505,-0.5771,0.9143454038997214,0.07370607387448073
-0.2103,0.1956,0.2578,0.19220055710306408,0.015493432132030987
0.2247,-0.0656,-0.0504,0.0,0.0
-0.0351,0.1586,0.2597,0.0,0.0
-0.4792,0.1594,-0.018,0.0,0.0
0.1843,-0.0899,-0.0227,0.0,0.0
-0.3799,0.1586,-0.0281,0.0,0.0
0.4314,-0.0204,-0.1627,0.0,0.0
-0.1464,0.1586,0.2327,0.0,0.0
0.2859,-0.2414,0.0094,0.0,0.0
-0.3634,-0.1299,0.067,0.0,0.0
-0.1612,-0.0108,0.524,0.0,0.0
-0.2743,-0.1602,0.1823,0.0,0.0
-0.0817,-0.2414,-0.4293,0.0,0.0
-0.0337,-0.0414,0.3623,0.43140668523676884,0.03477601886156955
-0.2146,0.0461,0.2453,0.0,0.0
0.5689,-0.1659,-0.2373,0.0,0.0
0.4074,0.1513,-0.2223,0.0,0.0
-0.1875,0.0363,0.3391,0.0,0.0
0.2968,-0.1872,-0.0941,0.0,0.0
-0.0273,0.1586,-0.2007,0.0,0.0
-0.1903,-0.2414,-0.2435,0.0,0.0
0.3965,-0.0414,0.0047,0.0,0.0
0.4772,-0.2414,-0.0908,0.0,0.0
0.4996,-0.1763,-0.0285,0.0,0.0
-0.1618,-0.1662,0.5146,0.19063370473537605,0.015367126978780734
-0.4888,0.002,-0.0197,0.20160167130919224,0.016251263051532502
0.5464,0.0218,-0.2641,0.0,0.0
-0.1198,0.1224,0.474,0.0,0.0
0.1134,-0.0467,0.5391,0.34540389972144847,0.02784326933872235
0.0604,-0.0271,-0.3097,0.0,0.0
-0.0603,-0.1314,0.5503,0.0,0.0
0.7628,0.136,-0.3184,0.4923398328690808,0.0396878859324127
-0.0604,0.1586,-0.0049,0.19063370473537605,0.015367126978780734
0.1952,-0.1125,-0.2491,0.0,0.0
0.1881,-0.1666,-0.2513,0.0,0.0
-0.2177,0.1886,-0.0301,0.3610724233983287,0.029106320871224875
0.0994,-0.0645,0.0498,0.0,0.0
-0.2653,0.0848,0.2005,0.2219707520891365,0.017893230043785784
-0.5992,-0.2307,0.0045,0.0,0.0
0.5027,-0.164,0.6739,0.0,0.0
-0.1318,0.0145,0.5064,0.0,0.0
0.0133,-0.2305,0.1612,0.5987116991643454,0.04826260244751319
0.333,-0.1705,-0.2247,0.0,0.0
-0.2308,-0.2414,0.0915,0.0,0.0
0.1497,0.1886,-0.2122,0.0,0.0
0.5349,0.2414,-0.2418,0.0,0.0
-0.3286,0.1886,0.0284,0.0,0.0
0.1204,0.0642,-0.3102,0.0,0.0
-0.0944,-0.1999,0.4034,0.0,0.0
0.147,-0.1363,0.5026,0.0,0.0
-0.1695,0.1683,-0.5721,0.19846796657381618,0.015998652745031997
-0.0302,0.1586,0.1994,0.38596796657381616,0.031113169417312223
0.4523,0.0239,-0.2239,0.0,0.0
-0.1338,0.1886,0.1998,0.23293871866295265,0.018777366116537554
0.4997,-0.0414,-0.1724,0.0,0.0
-0.2206,0.0281,0.3298,0.0,0.0
-0.1678,0.1886,-0.4148,0.0,0.0
-0.0127,-0.2071,0.2081,0.0,0.0
0.0614,-0.0672,-0.3452,0.0,0.0
-0.0991,0.1886,-0.0059,0.6126392757660168,0.04938531492084878
0.002,-0.2414,-0.1154,0.0,0.0
0.4316,-0.1696,0.2996,0.3610724233983287,0.029106320871224875
-0.2696,-0.2256,0.1302,0.0,0.0
-0.0132,0.1586,-0.2324,0.0,0.0
-0.1497,-0.1563,-0.5375,0.0,0.0
-0.1773,-0.2202,-0.5417,0.0,0.0
-0.0281,-0.0886,0.2391,0.0,0.0
-0.287,0.176,0.1049,0.19533426183844013,0.01574604243853149
-0.13,-0.0502,0.5021,0.0,0.0
-0.1632,-0.0351,0.7371,0.8410515320334263,0.06779779948355226
0.2838,0.0447,-0.2604,0.0,0.0
-0.2107,0.1886,0.0669,0.42513927576601673,0.03427079824856854
0.0049,-0.1707,0.1759,0.0,0.0
0.1472,0.1586,-0.037,0.0,0.0
0.4513,-0.2158,0.1465,0.0,0.0
0.2678,0.0488,-0.2326,0.0,0.0
-0.0686,0.1886,-0.048,2.302402506963788,0.18559840574828781
0.4476,-0.1959,-0.1704,0.0,0.0
-0.204,0.0622,0.4112,0.0,0.0
0.4867,0.0474,-0.2566,0.0,0.0
-0.4555,-0.1585,-0.0126,0.0,0.0
-0.3589,0.0142,0.0327,0.0,0.0
0.5946,0.0167,-0.2725,0.0,0.0
0.1372,0.1586,-0.2413,0.0,0.0
-0.3457,0.0916,0.0427,0.0,0.0
0.2329,-0.1301,-0.2394,0.0,0.0
0.0971,-0.2414,0.5409,0.0,0.0
0.3571,-0.2414,-0.1985,0.0,0.0
-0.2294,-0.1458,-0.6995,0.0,0.0
-0.1605,-0.1871,0.5342,0.0,0.0
0.1006,0.0632,-0.3206,0.0,0.0
-0.2158,-0.0369,0.3501,0.0,0.0
0.0627,-0.2414,0.0294,0.0,0.0
0.4612,0.0429,-0.1769,0.4112116991643454,0.03314808577523296
0.2706,-0.2414,0.2066,0.0,0.0
-0.3567,-0.0913,0.0727,0.0,0.0
-0.1604,-0.0185,-0.6191,0.36263927576601673,0.02923262602447513
-0.0664,0.0775,-0.4217,0.0,0.0
0.1074,-0.2311,0.5084,0.0,0.0
0.1692,-0.0647,-0.0114,0.0,0.0
-0.1348,0.2165,-0.5715,0.0,0.0
0.3954,-0.2414,-0.1898,0.0,0.0
-0.2393,0.0455,0.1853,0.0,0.0
-0.3327,-0.0042,0.0539,0.0,0.0
0.0653,0.1586,-0.0506,0.0,0.0
-0.3058,-0.0006,-0.1357,0.0,0.0
-0.0707,0.1886,-0.2222,0.0,0.0
-0.0215,0.1586,0.0619,0.0,0.0
0.5816,0.1586,-0.2053,0.0,0.0
0.4666,-0.0675,-0.1795,0.0,0.0
-0.7846,0.1676,-0.004,0.0,0.0
-0.2093,-0.0882,0.2606,0.0,0.0
0.1167,-0.2414,-0.0902,0.0,0.0
-0.2002,0.1862,0.437,0.0,0.0
0.4696,0.2414,-0.2469,0.0,0.0
0.7578,0.1364,-0.3167,0.0,0.0
0.1253,-0.0918,-0.2747,0.0,0.0
-0.0237,-0.1306,0.5401,0.0,0.0
0.6217,0.2353,-0.2475,0.0,0.0
-0.3294,0.1289,0.1,0.0,0.0
-0.1399,0.1586,0.1492,0.0,0.0
-0.1428,0.1586,0.4663,0.0,0.0
0.2584,-0.0414,-0.046,0.0,0.0
0.1759,-0.2414,0.2976,0.0,0.0
0.0175,-0.2414,0.2107,0.0,0.0
0.3631,-0.2093,0.5612,0.19063370473537605,0.015367126978780734
-0.035,0.0652,-0.3877,0.0,0.0
-0.0794,0.1886,-0.2371,0.0,0.0
-0.5602,0.0343,0.004,0.2345055710306407,0.018903671269787807
-0.207,0.1136,-0.647,1.9775417827298052,0.15941113730773548
0.5163,-0.1274,0.625,0.0,0.0
0.0855,0.0699,-0.2947,0.0,0.0
-0.0683,0.1809,0.4195,0.0,0.0
0.3976,-0.0414,-0.0088,0.0,0.0
0.4736,-0.0332,-0.1828,0.0,0.0
-0.034,-0.0439,-0.4304,1.2315459610027857,0.09927585045469856
-0.1313,0.1586,-0.0811,0.0,0.0
-0.1842,-0.2092,0.354,0.0,0.0
-0.1813,0.1586,-0.3584,1.1034122562674096,0.08894689570001123
0.2664,0.1586,-0.1937,0.0,0.0
0.3621,-0.0214,-0.223,0.0,0.0
-0.0685,0.0238,-0.4241,0.0,0.0
-0.0891,0.1586,0.2859,0.0,0.0
0.2485,-0.0414,0.0713,0.0,0.0
-0.0172,-0.2414,-0.0516,0.0,0.0
-0.1888,0.1324,0.5729,0.0,0.0
-0.2387,-0.1183,-0.2157,0.4204387186629527,0.03389188278881778
-0.0692,-0.1474,-0.425,0.0,0.0
-0.3464,-0.1598,0.0421,0.0,0.0
0.4057,-0.2414,-0.0613,0.0,0.0
0.0449,0.0519,-0.3572,0.0,0.0
0.4064,-0.0414,0.2808,1.81441504178273,0.14626136746379254
-0.0899,-0.0069,-0.5006,0.572075208913649,0.046115414842258895
-0.1599,0.1977,0.6882,0.0,0.0
-0.2284,0.058,0.2098,0.0,0.0
-0.482,-0.0782,-0.0185,0.0,0.0
-0.133,-0.2414,0.5506,0.0,0.0
-0.1656,0.0399,0.4728,0.0,0.0
0.2195,-0.1302,-0.2426,0.0,0.0
-0.5179,-0.2414,-0.0034,0.0,0.0
0.4312,-0.1044,0.3106,1.9883356545961002,0.16028123947457054
0.0992,-0.0865,0.0499,0.0,0.0
-0.637,0.1556,0.0072,0.0,0.0
-0.1884,0.1357,0.3351,0.0,0.0
-0.1639,-0.1533,-0.6262,0.19533426183844013,0.01574604243853149
0.0014,0.1886,0.0498,0.3579387186629527,0.028853710564724373
0.3354,-0.1292,-0.115,0.0,0.0
-0.0436,-0.096,0.5456,0.0,0.0
-0.1866,0.1171,0.7489,0.0,0.0
0.4054,-0.0784,-0.2223,0.0,0.0
-0.1874,-0.1733,0.3394,0.0,0.0
-0.0436,0.1489,0.2736,0.0,0.0
0.3481,0.0911,-0.1215,3.762186629526463,0.30327270685977326
0.1206,0.1886,0.0307,0.42983983286908084,0.0346497137083193
-0.0426,0.1586,0.2359,0.0,0.0
0.0019,-0.1046,-0.3936,0.0,0.0
0.4013,-0.2116,0.5815,0.35950557103064074,0.02898001571797463
-0.1166,0.1229,-0.5409,0.326949860724234,0.02635567531155271
-0.1969,0.1644,0.3018,0.0,0.0
0.6062,-0.0659,-0.2749,0.0,0.0
-0.7303,0.1543,0.0215,0.0,0.0
-0.3422,-0.175,0.0456,0.0,0.0
-0.2048,0.0485,-0.6422,0.0,0.0
0.1318,0.1029,0.0197,0.5172353760445683,0.04169473447850005
-0.1646,-0.2414,0.2592,0.0,0.0
0.2705,0.1586,-0.1324,0.0,0.0
-0.0394,0.0496,-0.3923,0.0,0.0
-0.1281,0.1586,0.3726,0.0,0.0
-0.0256,0.1667,-0.3785,0.0,0.0
0.5912,-0.2187,-0.2718,0.0,0.0
0.1284,0.1586,-0.1757,0.0,0.0
-0.227,0.0125,0.3055,0.0,0.0
0.0901,0.0412,-0.2921,0.0,0.0
-0.0616,0.1039,-0.4629,0.1937674094707521,0.01561973728528124
0.2763,-0.0842,0.5288,0.0,0.0
-0.0661,0.1586,-0.2458,0.0,0.0
-0.1628,0.1886,0.4788,0.0,0.0
-0.2077,0.0666,-0.2816,0.6782729805013927,0.054676097451442675
0.0643,0.0403,0.0883,0.0,0.0
0.213,-0.0841,-0.2442,0.0,0.0
0.2706,-0.0542,0.5198,0.0,0.0
0.1781,-0.0414,0.4102,0.0,0.0
0.1552,-0.2414,-0.173,0.0,0.0
-0.1973,0.1586,-0.2364,0.0,0.0
-0.0906,0.1586,-0.3843,0.0,0.0
0.269,-0.0414,-0.0192,0.0,0.0
0.1321,0.095,-0.2717,0.0,0.0
0.6539,0.1878,-0.2388,0.0,0.0
-0.0955,-0.104,0.4066,0.0,0.0
0.0806,-0.1724,0.07,0.0,0.0
-0.2159,-0.2414,0.2327,0.0,0.0
-0.0058,-0.2414,-0.1008,0.0,0.0
-0.2389,0.1807,-0.7244,0.0,0.0
0.1917,0.1792,-0.2815,0.5423050139275767,0.043715616930504096
-0.1938,-0.0288,0.4921,0.0,0.0
0.0979,0.1586,0.0703,0.0,0.0
-0.0877,-0.2099,0.5891,0.22980501392757663,0.018524755810037048
0.0263,-0.2414,0.1192,0.0,0.0
-0.2418,-0.0307,-0.7324,0.5470055710306407,0.044094532390254855
-0.2086,-0.226,0.2631,0.5424791086350975,0.04372965083642079
-0.1749,-0.1615,0.4035,0.0,0.0
-0.4259,0.0356,0.0289,0.0,0.0
-0.2251,0.2181,0.2177,0.0,0.0
-0.0573,-0.1107,-0.4113,0.0,0.0
0.2128,0.1542,-0.0429,0.0,0.0
0.0677,-0.0501,0.5171,0.0,0.0
-0.3598,0.0595,0.032,0.0,0.0
-0.2265,0.1586,-0.0593,0.0,0.0
-0.4049,0.0483,0.0054,0.0,0.0
-0.2226,-0.2414,-0.7421,0.5658077994428969,0.04561019422925788
-0.0413,0.1886,-0.2665,0.0,0.0
-0.6083,-0.092,-0.0251,0.0,0.0
0.5489,-0.0464,-0.2341,0.0,0.0
0.2191,-0.2414,0.1435,0.0,0.0
0.0795,-0.1232,-0.298,0.0,0.0
0.3631,-0.2414,0.3192,0.0,0.0
-0.1161,-0.1372,-0.5401,0.0,0.0
0.0051,0.0558,0.175,2.528899721448468,0.2038565173459077
-0.1662,0.0034,-0.6308,0.5360376044568245,0.04321039631750308
0.0301,0.1586,-0.2378,0.0,0.0
-0.189,0.1133,0.5675,0.0,0.0
-0.7588,0.0463,-0.003,0.0,0.0
-0.402,-0.2414,-0.0489,0.0,0.0
-0.1393,0.1586,0.3446,0.0,0.0
-0.1203,0.1586,0.0552,0.0,0.0
-0.0607,-0.1484,0.5504,0.0,0.0
-0.0875,0.1538,-0.4472,0.0,0.0
-0.1328,0.1586,-0.2826,0.0,0.0
-0.0856,0.1586,0.0627,0.0,0.0
0.2135,-0.1859,-0.0435,0.0,0.0
-0.1783,-0.229,0.3839,0.0,0.0
-0.6143,0.1591,-0.0498,0.0,0.0
-0.3846,0.082,-0.084,1.583391364902507,0.1276383743123386
-0.7592,0.1424,0.0278,0.0,0.0
-0.0234,0.1586,0.1614,0.0,0.0
0.1713,-0.1434,0.5046,0.0,0.0
0.3798,-0.1627,-0.1374,0.0,0.0
0.0719,-0.1661,-0.3025,0.0,0.0
0.1794,-0.0513,-0.2539,0.0,0.0
0.678,0.1577,-0.261,0.0,0.0
0.2889,-0.0456,-0.2597,0.0,0.0
-0.03,0.1586,-0.1983,0.0,0.0
-0.519,0.05,-0.0364,1.7895194986072425,0.14425451891770516
-0.0587,-0.1903,0.581,0.4204387186629527,0.03389188278881778
0.1852,-0.0347,0.5055,0.0,0.0
-0.2245,-0.0905,0.3144,0.0,0.0
0.7405,-0.0835,-0.3109,0.0,0.0
-0.1585,0.0866,0.5839,0.7205779944289693,0.0580863365891995
-0.0529,0.1314,0.2954,0.0,0.0
-0.16,0.1586,0.2552,0.0,0.0
-0.2097,0.1586,0.1851,0.0,0.0
-0.1453,0.1586,0.1239,0.20473537604456826,0.016503873358033008
0.3484,0.1586,-0.2076,0.0,0.0
-0.0472,0.1586,0.0417,0.19063370473537605,0.015367126978780734
0.7826,-0.0113,-0.3227,0.0,0.0
-0.0369,-0.1891,-0.4335,0.0,0.0
0.5666,-0.1066,-0.1886,0.0,0.0
0.0124,-0.2414,0.1296,0.19063370473537605,0.015367126978780734
-0.0903,0.1886,-0.1453,0.0,0.0
-0.1527,-0.0557,-0.5426,0.0,0.0
-0.1335,0.1886,0.1601,2.328690807799443,0.18771752554170873
-0.2606,0.0326,0.2109,0.0,0.0
-0.1264,-0.2414,-0.2731,0.0,0.0
0.3704,0.1586,-0.0999,0.0,0.0
-0.4404,0.1713,-0.0082,0.0,0.0
-0.5433,0.2414,-0.017,0.0,0.0
0.546,-0.1033,0.6957,0.0,0.0
-0.1351,-0.1724,-0.572,0.0,0.0
-0.539,0.0983,-0.032,0.0,0.0
0.5386,-0.2343,0.657,0.0,0.0
-0.2989,0.1586,-0.1213,0.9018105849582174,0.07269563264847873
-0.0225,-0.2414,-0.3224,0.0,0.0
-0.6358,-0.2052,0.0071,0.0,0.0
-0.709,-0.201,0.0174,0.0,0.0
-0.134,0.176,0.5959,0.0,0.0
-0.1796,0.1586,-0.4613,0.0,0.0
-0.2177,-0.1745,-0.6713,0.0,0.0
-0.697,0.1997,-0.0151,0.0,0.0
-0.0966,0.1886,0.354,0.0,0.0
0.4681,0.1446,-0.1802,0.0,0.0
-0.1537,-0.077,-0.5444,0.0,0.0
0.107,0.1886,-0.0945,1.2566155988857939,0.10129673290670259
-0.2304,0.111,-0.7022,1.8412256267409473,0.14842258897496352
-0.1414,0.0499,-0.5241,0.43297353760445684,0.034902324014819804
-0.1267,-0.2414,0.4968,0.0,0.0
-0.0424,-0.071,-0.4399,0.0,0.0
0.0219,-0.1332,-0.337,0.0,0.0
-0.0732,0.1886,0.2735,0.8955431754874652,0.07219041203547771
-0.2398,-0.0212,0.1841,0.0,0.0
-0.1989,0.1647,-0.7042,0.0,0.0
-0.0086,0.1586,-0.2365,0.0,0.0
-0.1924,0.0062,0.7253,0.0,0.0
0.3735,-0.0878,0.6062,0.0,0.0
-0.3222,-0.0293,0.1086,0.0,0.0
0.7458,0.0846,-0.281,4.824860724233984,0.3889356685752779
-0.1179,0.1886,-0.1675,0.0,0.0
-0.1946,0.0767,0.4839,0.0,0.0
0.3565,-0.2414,-0.1924,0.0,0.0
0.3743,0.1586,-0.1723,0.0,0.0
-0.1213,-0.1849,-0.4934,0.0,0.0
-0.3267,-0.0375,0.1032,0.0,0.0
-0.1903,-0.2414,0.4866,0.0,0.0
0.2425,-0.191,0.5487,0.0,0.0
0.2252,0.1586,-0.0724,0.0,0.0
0.0412,-0.0226,0.1184,0.2517409470752089,0.020293027955540582
-0.469,0.0358,-0.0158,0.0,0.0
-0.7378,-0.0211,0.0231,0.0,0.0
-0.1105,-0.2355,-0.478,0.0,0.0
-0.0657,-0.02,0.3269,0.4267061281337048,0.03439710340181879
-0.5215,0.0458,-0.0239,0.945508356545961,0.0762181430335691
-0.7855,-0.1369,0.0307,0.9159122562674095,0.07383237902773099
-0.0299,-0.2414,-0.3072,0.0,0.0
-0.0611,0.1398,0.3154,0.0,0.0
-0.2577,0.1548,0.2174,0.0,0.0
-0.1321,-0.2007,0.6011,0.0,0.0
0.198,0.1663,-0.2796,0.0,0.0
-0.5477,0.2007,0.0044,0.0,0.0
-0.0569,0.231,-0.4571,0.0,0.0
0.7031,-0.0501,-0.268,0.0,0.0
-0.0622,0.1586,0.0532,0.0,0.0
-0.027,0.1586,0.0739,0.0,0.0
0.0951,-0.1358,0.5117,0.0,0.0
-0.179,0.1586,-0.2882,0.0,0.0
-0.1606,-0.0656,0.7018,0.0,0.0
0.425,0.1365,-0.2527,0.0,0.0
0.3896,-0.0414,0.2177,0.5517061281337048,0.044473447850005614
0.2751,-0.0414,0.2045,0.2783774373259053,0.02244021556079488
-0.1222,-0.2223,0.4806,0.0,0.0
-0.1581,-0.1659,0.611,0.0,0.0
-0.1224,-0.0429,0.4813,0.0,0.0
0.1636,-0.0414,0.2976,0.7689763231197771,0.06198776243404063
-0.0129,0.013,-0.3665,0.0,0.0
-0.1931,0.0007,0.4997,0.0,0.0
-0.2318,-0.149,0.2891,0.0,0.0
