x,y,z,SaliencyScore,NormalizedScore
-0.3196,0.2744,0.1125,0.0,0.0
0.2085,0.3244,0.0985,0.28582089552238804,0.025519439416317787
-0.5273,0.079,0.41,0.0,0.0
-0.3832,0.5244,-0.1465,0.0,0.0
0.2103,0.2129,0.6027,0.0,0.0
-0.4157,0.5244,-0.649,0.0,0.0
0.6265,0.2744,0.3014,0.9038557213930349,0.08070050750147145
-0.0073,0.0744,0.5951,0.0,0.0
-0.4027,0.2744,0.1238,0.0,0.0
0.4167,0.0744,0.3647,0.0,0.0
-0.1708,0.4704,0.2284,0.0,0.0
-0.5273,0.1554,0.0002,0.0,0.0
-0.5273,0.1497,0.2359,0.0,0.0
0.1187,0.3193,0.0962,0.683457711442786,0.06102233228575554
0.6232,0.3244,0.4882,0.0,0.0
0.5698,0.0771,0.5927,0.0,0.0
-0.5273,0.0525,0.2911,0.0,0.0
-0.4235,0.1887,0.6027,0.0,0.0
0.4952,0.0444,-0.519,0.0,0.0
-0.0434,0.0744,-0.5069,0.0,0.0
0.3406,0.0744,-0.1511,0.0,0.0
-0.3837,0.2744,-0.1785,0.0,0.0
-0.0977,0.0444,-0.4138,0.0,0.0
-0.1411,0.5544,0.2815,0.0,0.0
-0.149,0.3244,-0.0703,0.6337064676616916,0.056580306277693275
0.468,0.0744,0.4955,0.0,0.0
-0.0253,0.2744,0.4274,0.0,0.0
-0.4949,0.2744,-0.4669,0.0,0.0
-0.4653,0.2744,-0.4437,0.0,0.0
0.2633,0.2983,0.1416,0.740547263681592,0.066119557130007
0.206,0.0744,0.5118,0.0,0.0
-0.0705,0.0744,0.2897,0.0,0.0
-0.4643,0.5544,0.1801,0.0,0.0
-0.3881,0.2744,-0.3172,0.0,0.0
-0.5273,0.1062,-0.4247,0.0,0.0
-0.2014,0.3244,-0.4319,0.0,0.0
0.3375,0.3162,0.6027,0.0,0.0
0.538,0.2744,0.3433,1.1549751243781095,0.1031216337771658
-0.3777,0.3244,0.0003,0.0,0.0
-0.1573,0.3695,-0.3229,1.3261194029850745,0.11840220324490001
0.1971,0.2377,0.6027,0.0,0.0
0.3174,0.0744,0.065,0.0,0.0
0.5904,0.0444,0.5047,0.0,0.0
0.0927,0.0744,-0.1015,0.0,0.0
-0.3732,0.0444,0.0913,0.0,0.0
-0.3757,0.0744,-0.4923,0.0,0.0
-0.3013,0.5544,0.1731,0.0,0.0
0.1747,0.0744,0.1604,0.0,0.0
-0.1708,0.3661,-0.2359,3.08681592039801,0.2756055036702241
-0.0521,0.2744,0.4319,0.0,0.0
-0.1762,0.0444,-0.2646,0.0,0.0
-0.1529,0.0795,0.1818,0.0,0.0
-0.1529,0.1181,0.2451,6.264800995024876,0.5593510200002223
-0.452,0.5544,0.3539,0.0,0.0
-0.494,0.5544,0.2682,0.0,0.0
-0.0663,0.5244,-0.021,0.0,0.0
0.3982,0.01,0.019,0.7555970149253731,0.06746326999744585
0.4337,0.0744,0.4421,0.0,0.0
-0.4188,0.2744,0.5656,0.0,0.0
-0.4631,0.2744,-0.1487,0.0,0.0
0.1209,0.2744,0.5704,0.0,0.0
0.0953,0.0444,0.341,0.0,0.0
-0.2427,0.5244,-0.1896,0.0,0.0
-0.5273,0.394,-0.174,0.0,0.0
0.3657,0.1059,0.6027,0.0,0.0
0.2629,0.0744,-0.0966,0.0,0.0
-0.106,0.5097,-0.5396,0.0,0.0
-0.5273,0.0675,0.4703,0.0,0.0
-0.3051,0.3244,0.4639,0.0,0.0
0.568,0.0744,-0.1315,0.0,0.0
0.0826,0.0716,0.0962,0.0,0.0
-0.5273,0.2022,-0.5074,0.0,0.0
-0.5273,0.1884,-0.4408,0.0,0.0
0.5651,0.2744,0.6023,0.0,0.0
-0.5144,0.3244,-0.0979,0.0,0.0
-0.1708,0.4555,0.0145,3.973880597014925,0.35480682739397446
-0.1417,0.5544,-0.443,0.0,0.0
-0.3269,0.0744,0.0242,0.0,0.0
-0.244,0.5544,-0.6349,0.0,0.0
-0.35,0.5244,-0.2681,0.0,0.0
0.5979,0.0389,-0.0863,0.0,0.0
-0.135,0.2744,-0.449,0.0,0.0
-0.1671,0.5544,0.0203,0.4524875621890548,0.04040022654332642
-0.2926,0.0744,-0.0753,0.0,0.0
-0.3679,0.0744,0.4105,0.0,0.0
0.3828,0.1696,0.6027,0.0,0.0
-0.3689,0.2744,0.5336,0.0,0.0
-0.5091,0.0444,-0.4709,0.0,0.0
-0.2356,0.3244,-0.1673,0.0,0.0
-0.5273,0.1537,-0.3596,0.0,0.0
0.159,0.0744,0.577,0.0,0.0
-0.3919,0.3244,-0.2227,0.0,0.0
-0.3594,0.0444,0.0282,0.0,0.0
-0.5268,0.5544,0.0385,0.0,0.0
-0.5069,0.0444,0.0391,0.0,0.0
0.003,0.0444,0.4371,0.0,0.0
-0.1824,0.2744,-0.2815,0.0,0.0
-0.1529,0.0855,0.132,0.0,0.0
-0.3825,0.3244,-0.0756,0.0,0.0
0.3784,0.3244,0.2677,0.9016169154228855,0.08050061633110862
0.4638,0.0744,0.5078,0.0,0.0
-0.4821,0.2744,-0.2847,0.0,0.0
-0.5273,0.3224,-0.7417,0.0,0.0
-0.5228,0.3888,0.3937,0.0,0.0
-0.3729,0.3244,0.2472,0.0,0.0
-0.5273,0.4467,0.2601,0.0,0.0
0.5586,0.0444,-0.1509,0.0,0.0
-0.1708,0.4625,-0.2572,0.4502487562189054,0.040200335372963615
0.2323,0.0744,-0.3549,0.0,0.0
-0.5273,0.3493,-0.5715,0.0,0.0
0.2063,0.0444,0.2218,0.0,0.0
-0.3994,0.0444,0.1704,0.0,0.0
0.4317,0.01,-0.0321,0.0,0.0
-0.0763,0.5244,-0.4239,0.6213930348258706,0.05548090484069785
-0.5261,0.3244,0.2079,0.0,0.0
-0.3139,0.5244,-0.312,0.0,0.0
-0.1709,0.0444,0.0241,0.0,0.0
-0.0305,0.1873,0.6027,0.0,0.0
-0.5102,0.2744,0.2547,0.0,0.0
-0.1599,0.0744,0.265,0.0,0.0
-0.0323,0.0444,0.4607,0.0,0.0
-0.1529,0.1608,-0.0979,0.2958955223880597,0.0264189496829504
0.046,0.0744,0.4073,0.0,0.0
-0.1564,0.4359,-0.7419,0.0,0.0
-0.1665,0.2744,-0.6387,0.0,0.0
-0.2868,0.0744,0.068,0.0,0.0
0.6414,0.0325,-0.0883,0.4580845771144279,0.04089995446923343
-0.317,0.2744,0.1438,0.0,0.0
-0.3206,0.3244,0.1316,0.0,0.0
-0.2899,0.3244,0.3814,3.266915422885572,0.2916856378194095
0.4579,0.0256,-0.0863,0.45584577114427854,0.04070006329887062
-0.4039,0.0444,-0.0331,0.0,0.0
-0.2008,0.5244,-0.2833,0.0,0.0
-0.098,0.3244,0.3222,0.0,0.0
0.0102,0.2465,0.3889,1.4894278606965174,0.13298315361636445
0.2952,0.2744,0.5868,0.0,0.0
-0.3123,0.5244,0.1257,0.0,0.0
0.2404,0.0744,-0.1056,0.0,0.0
0.2587,0.0444,-0.1363,0.0,0.0
-0.476,0.2744,-0.2031,0.0,0.0
-0.5118,0.5244,0.2172,0.0,0.0
-0.3094,0.2744,-0.2838,0.0,0.0
0.003,0.0744,0.3945,0.0,0.0
-0.0584,0.2744,0.5554,0.0,0.0
0.5295,0.01,-0.0027,0.0,0.0
-0.321,0.2744,-0.2876,0.0,0.0
-0.1598,0.5333,-0.7419,0.0,0.0
0.6007,0.3165,0.2523,0.0,0.0
-0.4486,0.0744,-0.3788,0.0,0.0
-0.5273,0.3549,-0.4889,0.0,0.0
-0.2626,0.071,0.0962,0.0,0.0
-0.1899,0.0444,-0.0327,0.0,0.0
-0.251,0.5544,0.528,0.0,0.0
-0.3355,0.5544,-0.614,0.0,0.0
-0.1529,0.2575,0.1188,1.6930348258706467,0.15116214505435932
0.2822,0.0744,0.3137,0.0,0.0
-0.3338,0.5544,-0.2829,0.0,0.0
-0.2888,0.2744,-0.0087,0.0,0.0
-0.0659,0.0444,-0.1271,0.45360696517412935,0.04050017212850782
-0.1238,0.0744,-0.3818,0.0,0.0
-0.5022,0.0744,0.2393,0.0,0.0
0.0336,0.0444,-0.1489,0.0,0.0
0.4162,0.2522,0.3998,0.9838308457711442,0.08784106430943155
-0.3894,0.0744,0.149,0.2511194029850746,0.02242112627569435
-0.1708,0.4605,-0.2127,0.7036069651741292,0.06282135281902076
-0.2505,0.4605,0.3937,0.0,0.0
-0.2604,0.2744,0.5628,0.0,0.0
-0.5273,0.3921,-0.1431,0.0,0.0
0.1659,0.0444,0.1175,0.0,0.0
-0.0423,0.0444,-0.251,0.0,0.0
0.3917,0.0444,-0.3184,0.7103233830845771,0.06342102633010918
-0.5273,0.2172,-0.1197,0.0,0.0
-0.4993,0.2744,-0.4924,0.0,0.0
-0.2403,0.3244,0.3822,0.0,0.0
-0.5273,0.2791,0.4254,0.0,0.0
-0.2096,0.0663,0.6027,0.0,0.0
-0.2505,0.5244,-0.7162,0.0,0.0
-0.3478,0.2744,0.0079,0.0,0.0
-0.4038,0.5244,-0.0529,0.0,0.0
-0.3561,0.2744,-0.1427,0.0,0.0
-0.361,0.0454,0.0962,0.0,0.0
-0.1708,0.432,0.3499,1.1706467661691542,0.1045208719697054
-0.0859,0.3394,-0.6241,0.0,0.0
-0.0683,0.0744,0.2656,0.25223880597014925,0.02252107186087575
-0.2906,0.5244,-0.5516,0.0,0.0
-0.2887,0.0744,0.4272,0.0,0.0
-0.323,0.5244,0.3065,0.0,0.0
-0.197,0.4117,0.3937,0.0,0.0
-0.5138,0.5244,0.3292,0.0,0.0
-0.1707,0.5544,0.386,1.2931592039800996,0.11545936101455878
-0.0917,0.5244,0.3597,0.0,0.0
-0.4304,0.2744,0.5525,0.0,0.0
-0.1421,0.3244,-0.4776,0.0,0.0
-0.5235,0.0744,0.3567,0.0,0.0
-0.5273,0.3173,-0.6612,0.0,0.0
0.204,0.2744,0.4306,0.0,0.0
-0.423,0.413,-0.7419,0.0,0.0
0.2426,0.1977,0.3889,0.2533582089552239,0.02262101744605715
0.4841,0.0744,0.2014,0.0,0.0
0.5646,0.0444,-0.1511,0.0,0.0
-0.2817,0.3244,0.2158,0.0,0.0
-0.1244,0.3982,-0.4617,1.2416666666666667,0.1108618640962143
-0.2935,0.3244,-0.4385,0.0,0.0
0.3558,0.0085,-0.0301,0.0,0.0
0.3551,0.3244,0.336,1.9419154228855722,0.17338338015969088
0.1285,0.0444,0.4749,0.0,0.0
0.2389,0.2744,0.1121,0.0,0.0
-0.3874,0.2744,-0.4015,0.0,0.0
0.4805,0.0444,0.4868,0.0,0.0
0.1126,0.2744,0.5297,0.0,0.0
-0.1933,0.2744,-0.6042,0.0,0.0
-0.1529,0.2296,-0.253,0.0,0.0
-0.405,0.2744,0.4742,0.0,0.0
-0.1279,0.3893,-0.4468,1.2416666666666667,0.1108618640962143
-0.2155,0.0744,0.3323,0.0,0.0
0.4134,0.0591,-0.5288,0.0,0.0
0.3661,0.0744,0.4073,0.0,0.0
-0.3159,0.2744,-0.0807,0.0,0.0
0.3746,0.2758,0.3015,0.2533582089552239,0.02262101744605715
-0.1723,0.0592,0.0962,0.44912935323383085,0.040100389787782215
0.0588,0.0444,-0.1563,0.0,0.0
0.3817,0.3244,0.3546,0.6191542288557214,0.05528101367033505
-0.2288,0.0444,-0.5285,0.0,0.0
-0.0663,0.0743,-0.0863,0.0,0.0
-0.1979,0.0444,0.467,0.0,0.0
-0.4114,0.5244,0.1639,0.0,0.0
-0.3121,0.5244,-0.7325,0.0,0.0
-0.4352,0.2734,-0.5288,0.0,0.0
-0.3271,0.3244,-0.5562,0.0,0.0
0.3655,0.01,0.0581,2.236691542288557,0.19970238425745987
-0.1709,0.3244,-0.4177,0.0,0.0
-0.2348,0.5244,-0.5033,0.0,0.0
-0.1664,0.5244,-0.3917,0.0,0.0
0.1638,0.0444,0.2367,0.2511194029850746,0.02242112627569435
-0.369,0.5544,-0.1295,0.0,0.0
-0.2297,0.5544,-0.5189,0.0,0.0
-0.1313,0.0444,0.1793,0.0,0.0
-0.0138,0.0744,0.5365,0.0,0.0
0.1194,0.0444,0.1302,0.0,0.0
0.1725,0.0444,0.4595,0.0,0.0
-0.1119,0.0518,-0.5288,0.0,0.0
0.0634,0.2744,0.4556,0.0,0.0
-0.1918,0.2744,-0.6377,0.0,0.0
-0.0553,0.0744,-0.4559,0.0,0.0
-0.1642,0.4738,-0.2938,0.0,0.0
-0.21,0.2744,-0.4913,0.0,0.0
-0.3778,0.2744,-0.1932,0.0,0.0
0.1389,0.0701,-0.5288,0.0,0.0
-0.3273,0.2744,-0.0909,0.0,0.0
-0.4235,0.2744,-0.3457,0.0,0.0
0.0316,0.0744,0.4361,0.0,0.0
0.4162,0.0852,0.4021,0.0,0.0
-0.3243,0.2744,0.2327,0.0,0.0
0.6002,0.0444,0.4384,0.0,0.0
-0.5273,0.1667,0.1617,0.0,0.0
0.5394,0.0444,-0.317,0.0,0.0
-0.0248,0.2977,0.2064,2.661194029850746,0.23760397117125123
-0.2225,0.5244,-0.1721,0.0,0.0
0.2442,0.3244,0.4537,0.0,0.0
0.1588,0.1149,0.6027,0.0,0.0
0.4155,0.3244,0.5953,0.0,0.0
-0.1001,0.4104,-0.5642,4.50410447761194,0.4021477195748982
-0.2139,0.2744,0.1715,0.0,0.0
-0.1495,0.5544,0.1292,2.5169154228855724,0.22472209574787066
-0.1171,0.3244,0.2074,0.0,0.0
-0.1802,0.0744,-0.2465,0.0,0.0
-0.5273,0.1139,0.1481,0.956094527363184,0.08536463480993682
-0.2533,0.2744,-0.1678,0.0,0.0
-0.2644,0.2545,0.6027,0.0,0.0
-0.1809,0.0744,0.3199,0.0,0.0
-0.4021,0.2744,0.1751,0.0,0.0
-0.5244,0.3244,-0.5734,0.0,0.0
-0.4196,0.0444,0.1335,0.0,0.0
-0.4388,0.5544,0.1561,0.0,0.0
0.6226,0.01,0.0226,0.0,0.0
-0.058,0.3199,-0.2642,0.0,0.0
0.4199,0.0444,-0.1445,0.0,0.0
-0.1529,0.1573,-0.0699,0.0,0.0
-0.1741,0.3244,0.3687,0.6191542288557214,0.05528101367033505
0.1986,0.2892,0.2432,1.6074626865671642,0.14352186032049222
-0.1215,0.5244,-0.7214,0.0,0.0
0.0069,0.0744,-0.1742,0.4502487562189054,0.040200335372963615
-0.5198,0.0444,-0.0278,0.0,0.0
-0.2106,0.2744,0.0918,0.0,0.0
-0.2942,0.0744,0.4023,0.0,0.0
-0.5196,0.3244,-0.3598,0.0,0.0
-0.3307,0.2576,0.6027,0.0,0.0
-0.3422,0.0744,0.0189,0.0,0.0
-0.4958,0.0744,-0.1538,0.0,0.0
-0.1493,0.3244,-0.2714,0.0,0.0
0.3393,0.0744,0.4981,0.0,0.0
-0.0445,0.2744,0.4801,0.0,0.0
0.0644,0.0744,0.1846,1.8608208955223882,0.16614287776654937
-0.4654,0.2516,-0.5288,0.0,0.0
0.3579,0.0444,-0.2,0.0,0.0
0.0664,0.0444,-0.0034,0.0,0.0
-0.2618,0.2744,0.5306,0.0,0.0
-0.1641,0.2744,0.276,0.3473880597014925,0.031016446601294854
-0.1781,0.5244,-0.3336,0.0,0.0
0.0477,0.0744,0.0411,0.0,0.0
-0.4631,0.0744,0.2068,0.0,0.0
0.4162,0.1467,0.3917,0.6191542288557214,0.05528101367033505
0.0161,0.0744,0.3821,0.0,0.0
0.4215,0.0325,-0.0338,0.539179104477612,0.04814045686237494
-0.5273,0.291,-0.4068,0.0,0.0
-0.5273,0.2763,-0.429,0.0,0.0
0.3262,0.0444,-0.1052,0.0,0.0
0.6414,0.047,-0.4496,2.0621890547263684,0.18412197803418145
0.3303,0.2744,0.5745,0.0,0.0
-0.3964,0.0744,0.5063,0.0,0.0
-0.4518,0.3244,-0.3828,0.0,0.0
0.6093,0.1706,0.6027,0.0,0.0
-0.3447,0.0444,-0.4647,0.0,0.0
-0.3264,0.5244,-0.605,0.0,0.0
-0.1821,0.0744,0.2951,0.0,0.0
-0.5148,0.5244,-0.5556,0.0,0.0
-0.5273,0.4793,0.1814,0.0,0.0
0.1601,0.0444,0.5299,0.0,0.0
0.3152,0.0744,0.5076,0.0,0.0
0.3639,0.1068,0.3889,0.0,0.0
-0.1529,0.1522,0.039,0.6146766169154229,0.054881231329609446
-0.4328,0.3244,-0.6428,0.0,0.0
0.4751,0.0444,-0.5279,0.5347014925373135,0.04774067452164934
0.2134,0.0744,-0.0333,0.0,0.0
-0.3805,0.2744,0.4474,0.0,0.0
0.2165,0.0744,0.4027,0.0,0.0
-0.4763,0.5244,-0.5731,0.0,0.0
0.2402,0.0744,-0.0769,0.0,0.0
-0.5131,0.0744,-0.2436,0.0,0.0
-0.342,0.2744,0.0533,0.0,0.0
0.5182,0.01,-0.0117,0.0,0.0
-0.3384,0.3244,0.2869,0.0,0.0
-0.2387,0.5244,-0.0881,0.0,0.0
-0.5273,0.1797,-0.1303,0.0,0.0
0.109,0.0744,0.063,0.0,0.0
0.2433,0.3134,0.1416,0.539179104477612,0.04814045686237494
-0.4357,0.5244,-0.3366,0.0,0.0
-0.234,0.2744,-0.5937,0.0,0.0
-0.2393,0.2744,0.0879,0.0,0.0
-0.2617,0.2744,-0.4147,0.0,0.0
0.5152,0.3111,0.0962,0.0,0.0
-0.2234,0.0744,0.5313,0.0,0.0
-0.2322,0.0757,0.6027,0.0,0.0
-0.3312,0.0444,0.0072,0.0,0.0
-0.2074,0.2744,0.5974,0.0,0.0
-0.3881,0.2744,-0.0184,0.0,0.0
-0.3007,0.0444,-0.2862,0.0,0.0
-0.499,0.5544,-0.2356,0.0,0.0
-0.3295,0.5244,0.3403,0.0,0.0
-0.4374,0.0444,0.5016,0.0,0.0
-0.2209,0.0444,0.4878,0.0,0.0
-0.5273,0.1728,0.1038,0.0,0.0
-0.3001,0.5244,0.087,0.0,0.0
-0.3929,0.3244,-0.2086,0.0,0.0
-0.3557,0.3244,-0.0491,0.0,0.0
-0.0516,0.0744,-0.4539,0.0,0.0
-0.2921,0.3244,-0.2636,0.0,0.0
-0.2872,0.4967,0.3937,0.0,0.0
-0.2516,0.3853,0.3937,0.0,0.0
-0.5273,0.5302,-0.5377,0.0,0.0
-0.0114,0.0744,-0.0097,0.0,0.0
-0.3334,0.2744,-0.4484,0.0,0.0
-0.5273,0.2175,-0.2242,0.0,0.0
-0.0783,0.0444,0.0251,0.0,0.0
-0.4405,0.5544,-0.5968,0.0,0.0
-0.1014,0.1374,0.1889,6.96728855721393,0.6220724272340615
0.2962,0.0444,-0.2929,0.0,0.0
0.5992,0.0744,-0.4567,0.0,0.0
0.5796,0.0744,0.2246,0.0,0.0
-0.1701,0.0744,0.2053,0.0,0.0
-0.0248,0.3077,0.2926,2.15,0.19196215393841135
-0.1586,0.0744,0.0132,0.4513681592039801,0.04030028095814502
0.378,0.0444,0.171,0.0,0.0
0.4549,0.0744,0.1106,0.7036069651741294,0.06282135281902076
-0.3545,0.5244,0.3619,0.0,0.0
-0.4703,0.0602,-0.0863,0.0,0.0
-0.1116,0.0744,0.2527,0.0,0.0
0.2574,0.0744,0.1999,0.0,0.0
0.1415,0.0444,-0.358,0.0,0.0
-0.1996,0.2744,-0.4978,0.0,0.0
-0.1463,0.3999,-0.7419,0.0,0.0
-0.201,0.3244,-0.0003,0.5078358208955224,0.04534198047729571
-0.3537,0.0744,-0.3693,0.0,0.0
-0.1664,0.3919,-0.2844,5.572388059701493,0.4975291230330155
-0.3325,0.0444,-0.3361,0.0,0.0
-0.3704,0.5244,-0.6809,0.0,0.0
0.4487,0.0444,0.4437,0.0,0.0
0.2692,0.2775,0.0962,0.4569651741293532,0.040800008884052025
0.1506,0.0744,0.5033,0.0,0.0
-0.0763,0.3367,-0.6647,0.0,0.0
-0.5273,0.2867,0.4812,0.0,0.0
0.3699,0.0444,-0.298,0.0,0.0
0.4096,0.0325,0.0428,4.754104477611941,0.42446890026541123
-0.3172,0.0444,-0.4522,0.0,0.0
0.1758,0.1865,0.3889,4.228358208955225,0.3775277904252131
0.1041,0.2159,0.6027,0.0,0.0
-0.367,0.3905,0.3937,0.0,0.0
-0.058,0.3089,0.0152,4.842537313432836,0.4323646014947419
-0.321,0.0744,0.2285,0.0,0.0
-0.2348,0.2744,-0.5943,0.0,0.0
-0.3012,0.5244,0.5377,0.0,0.0
0.3854,0.3244,0.3552,0.6191542288557214,0.05528101367033505
-0.2228,0.0744,-0.2891,0.0,0.0
-0.2356,0.3244,-0.5647,0.0,0.0
-0.1886,0.2744,-0.5177,0.0,0.0
0.6414,0.2888,0.2957,1.8133084577114427,0.16190074292884987
-0.5273,0.0656,-0.1384,0.0,0.0
-0.1275,0.3244,-0.5932,0.0,0.0
-0.5081,0.2744,0.0171,0.0,0.0
0.5645,0.3244,0.3137,0.0,0.0
-0.5217,0.5544,0.5232,0.0,0.0
-0.4345,0.5244,-0.3939,0.0,0.0
-0.3986,0.0744,0.047,0.0,0.0
-0.2596,0.0744,-0.0166,0.0,0.0
-0.3038,0.2744,0.369,0.0,0.0
-0.1529,0.2717,-0.4376,0.0,0.0
-0.5015,0.5544,0.2064,0.0,0.0
0.4588,0.0,-0.0937,0.0,0.0
-0.0694,0.2744,0.0396,3.3072139303482584,0.2952836788859399
-0.5273,0.1689,0.4863,0.0,0.0
0.3868,0.2744,0.5204,0.0,0.0
-0.4982,0.5544,-0.1271,0.0,0.0
-0.2629,0.5244,-0.1545,0.0,0.0
-0.3816,0.5244,-0.2172,0.0,0.0
0.55,0.2744,0.1366,0.2746268656716418,0.024519983564503776
0.64,0.0444,-0.1507,2.8491293532338307,0.2543837244167065
0.3677,0.0744,0.3038,0.0,0.0
-0.0766,0.5244,0.0465,0.0,0.0
-0.0634,0.2744,-0.536,0.0,0.0
-0.3604,0.0744,-0.4922,0.0,0.0
-0.3858,0.0444,0.1719,0.0,0.0
0.1739,0.0744,-0.4948,0.0,0.0
-0.1864,0.3244,0.2268,0.0,0.0
-0.1554,0.3244,0.4521,0.0,0.0
-0.4312,0.3244,-0.1087,0.0,0.0
0.3679,0.3244,0.5701,0.0,0.0
0.1088,0.2744,0.5936,0.0,0.0
0.274,0.0744,0.5989,0.0,0.0
-0.5273,0.3884,-0.2152,0.0,0.0
-0.1708,0.3778,-0.2356,1.0649253731343284,0.09508156670257308
-0.1444,0.5544,-0.516,0.0,0.0
-0.3127,0.5244,-0.5353,0.0,0.0
-0.3677,0.5244,0.0349,0.0,0.0
-0.2761,0.0744,-0.2861,0.0,0.0
-0.4981,0.3244,-0.0053,0.0,0.0
-0.2131,0.5244,-0.2144,0.0,0.0
-0.1167,0.2744,-0.6047,0.0,0.0
-0.215,0.3244,0.3317,0.0,0.0
0.269,0.2744,0.5168,0.0,0.0
-0.4062,0.5244,0.0557,0.0,0.0
-0.5273,0.1135,0.2572,0.0,0.0
-0.0248,0.2849,0.2452,0.0,0.0
-0.2762,0.2744,-0.3075,0.0,0.0
-0.5158,0.0744,-0.4411,0.0,0.0
-0.2563,0.2744,0.0036,0.0,0.0
-0.4025,0.3244,0.012,0.0,0.0
0.3595,0.0,-0.0733,0.0,0.0
-0.0901,0.0444,-0.2349,0.0,0.0
-0.229,0.5544,-0.4023,0.0,0.0
-0.1146,0.2744,-0.379,0.0,0.0
0.5675,0.0744,0.4973,0.0,0.0
-0.2523,0.3244,0.2624,0.0,0.0
-0.1656,0.5244,-0.0527,0.0,0.0
-0.2657,0.0744,-0.1577,0.0,0.0
-0.4333,0.5244,-0.7014,0.0,0.0
0.272,0.1222,0.3889,0.0,0.0
0.4081,0.0444,0.3214,0.0,0.0
0.4847,0.0444,-0.0963,0.6180348258706467,0.05518106808515365
-0.1545,0.5244,-0.6199,0.0,0.0
0.2417,0.0744,0.4129,0.0,0.0
-0.2377,0.3244,-0.4383,0.0,0.0
0.3648,0.0,-0.0558,0.0,0.0
-0.079,0.5244,0.4223,0.0,0.0
-0.2314,0.5244,-0.1457,0.0,0.0
-0.0974,0.2744,0.5438,0.0,0.0
-0.1493,0.3244,-0.6281,0.0,0.0
-0.5273,0.4005,-0.1367,0.0,0.0
-0.1888,0.0744,0.4031,0.0,0.0
0.214,0.3244,0.1171,0.0,0.0
-0.3324,0.5544,-0.1435,0.0,0.0
-0.298,0.4007,0.3937,0.6191542288557214,0.05528101367033505
-0.4721,0.0444,-0.1782,0.0,0.0
0.2478,0.0744,-0.4405,0.9558457711442787,0.08534242467989653
-0.4882,0.0744,0.2993,0.0,0.0
-0.3971,0.2744,0.491,0.0,0.0
-0.2204,0.5544,0.4982,0.0,0.0
0.2124,0.0744,0.4511,0.0,0.0
0.274,0.3244,0.1319,0.2533582089552239,0.02262101744605715
-0.1223,0.0444,0.2275,0.0,0.0
-0.3598,0.0849,0.6027,0.0,0.0
-0.3623,0.3244,-0.6733,0.0,0.0
-0.2226,0.5544,-0.2655,0.0,0.0
-0.4037,0.0491,-0.0863,0.0,0.0
-0.2079,0.1807,-0.5288,0.0,0.0
-0.3346,0.1194,0.6027,0.0,0.0
-0.3504,0.2744,0.1827,0.0,0.0
-0.2405,0.0744,-0.2476,0.0,0.0
-0.2844,0.5244,-0.6191,0.0,0.0
0.3913,0.0,-0.091,0.0,0.0
-0.1544,0.3154,0.6027,0.0,0.0
-0.3352,0.0744,-0.1988,0.0,0.0
-0.4753,0.2744,0.4512,0.0,0.0
0.1904,0.1579,0.3889,0.6991293532338307,0.062421570478295156
-0.3008,0.2744,-0.1932,0.0,0.0
-0.1191,0.4447,-0.4843,0.0,0.0
-0.0654,0.3825,-0.7109,0.0,0.0
-0.3014,0.3244,0.2723,0.0,0.0
-0.1415,0.1145,0.3889,2.7680348258706466,0.247143222023565
-0.5273,0.3599,-0.4733,0.0,0.0
-0.1529,0.2058,0.1188,3.1002487562189054,0.27680485069240085
-0.244,0.5244,0.4079,0.0,0.0
-0.4645,0.2744,-0.0306,0.0,0.0
0.4567,0.277,0.6027,0.0,0.0
-0.0653,0.3244,-0.2217,0.0,0.0
-0.4882,0.5244,-0.3384,0.0,0.0
-0.2285,0.5544,-0.3258,0.0,0.0
-0.2854,0.0744,-0.022,0.0,0.0
-0.1084,0.0664,0.0962,0.5055970149253731,0.0451420893069329
0.2725,0.0671,-0.0863,0.0,0.0
-0.1174,0.0444,-0.4986,0.0,0.0
0.1207,0.0744,0.2503,0.0,0.0
-0.5273,0.1102,0.1745,0.0,0.0
-0.2463,0.1998,-0.5288,0.0,0.0
0.0862,0.0444,-0.3752,0.0,0.0
-0.2972,0.5244,-0.1467,0.0,0.0
-0.5197,0.5544,0.023,0.0,0.0
0.2049,0.0744,0.5002,0.0,0.0
-0.138,0.0444,-0.3698,0.0,0.0
0.4439,0.0722,0.6027,0.0,0.0
0.3548,0.265,0.6027,0.0,0.0
-0.5273,0.5272,0.1082,0.0,0.0
-0.1447,0.0744,-0.1825,0.0,0.0
-0.058,0.3131,-0.6446,0.0,0.0
0.3908,0.0444,0.4219,0.0,0.0
-0.1529,0.1041,-0.2393,0.0,0.0
-0.0464,0.2744,0.2307,0.954726368159204,0.08524247909471512
0.2371,0.2744,0.4659,0.0,0.0
0.4751,0.0383,-0.0963,0.0,0.0
-0.1282,0.0444,0.0355,0.0,0.0
-0.294,0.5544,-0.2235,0.0,0.0
-0.3192,0.5244,-0.3984,0.0,0.0
-0.2921,0.0744,0.3609,0.0,0.0
-0.3141,0.5544,0.4678,0.0,0.0
-0.454,0.2661,0.6027,0.0,0.0
0.5743,0.0444,-0.1333,0.5055970149253731,0.0451420893069329
-0.092,0.5244,-0.0999,0.0,0.0
-0.072,0.3244,0.0995,0.9871890547263681,0.08814090106497575
-0.3714,0.3244,-0.3153,0.0,0.0
-0.4617,0.5244,-0.475,0.0,0.0
-0.1418,0.3408,-0.7419,0.0,0.0
-0.2681,0.2744,-0.4922,0.0,0.0
-0.0618,0.5544,0.5818,0.0,0.0
-0.2617,0.5244,0.3725,0.0,0.0
-0.5273,0.0899,0.5266,0.0,0.0
-0.3865,0.5244,-0.464,0.0,0.0
-0.1644,0.3244,-0.6813,0.0,0.0
-0.1195,0.0444,0.1552,0.0,0.0
-0.1753,0.2744,0.4259,0.0,0.0
-0.4964,0.5244,0.5345,0.0,0.0
0.2974,0.0744,-0.3507,0.0,0.0
-0.4674,0.0444,-0.177,0.0,0.0
-0.3146,0.2744,0.2383,0.0,0.0
-0.3381,0.3244,-0.2406,0.0,0.0
-0.2967,0.2246,0.6027,0.0,0.0
0.0374,0.0444,0.4556,0.0,0.0
-0.5273,0.0699,0.01,0.0,0.0
-0.2679,0.5244,0.5054,0.0,0.0
-0.3929,0.0744,-0.2841,0.0,0.0
-0.4062,0.5244,-0.0238,0.0,0.0
-0.4731,0.3823,0.3937,0.0,0.0
-0.1939,0.0444,-0.0824,0.0,0.0
-0.1546,0.3244,-0.4276,0.0,0.0
0.4741,0.0444,-0.1382,0.0,0.0
0.5886,0.0531,0.6027,0.0,0.0
0.3224,0.0744,0.1186,0.0,0.0
0.052,0.0744,-0.01,0.0,0.0
0.3321,0.0444,0.4167,0.0,0.0
-0.0995,0.13,0.0865,1.9638059701492538,0.1753378716032383
0.4038,0.0475,-0.0616,0.0,0.0
-0.4937,0.0666,-0.0863,0.0,0.0
-0.1857,0.5244,0.2281,0.0,0.0
-0.2335,0.0744,0.295,0.0,0.0
-0.5273,0.276,-0.3458,0.0,0.0
0.2376,0.0744,-0.07,0.0,0.0
-0.2141,0.5244,-0.2579,0.0,0.0
-0.2532,0.2744,0.3465,0.0,0.0
-0.4541,0.3244,-0.5695,0.0,0.0
0.6181,0.0444,0.4084,0.0,0.0
-0.3751,0.2744,-0.2096,0.0,0.0
-0.5153,0.5544,-0.0333,0.0,0.0
-0.0005,0.0444,-0.0523,0.0,0.0
-0.4187,0.5244,0.1035,0.0,0.0
0.5096,0.3244,0.3781,0.0,0.0
0.5286,0.0,0.0901,6.8700248756218905,0.6133882663882998
-0.4407,0.5489,0.6027,0.0,0.0
0.2926,0.3244,0.5616,0.0,0.0
-0.5026,0.5544,0.1254,0.0,0.0
-0.1708,0.4426,-0.2213,0.2847014925373134,0.025419493831136387
-0.2934,0.5544,0.0842,0.4569651741293532,0.040800008884052025
-0.2935,0.0744,-0.2178,0.0,0.0
0.1047,0.0744,0.4868,0.0,0.0
-0.4039,0.0506,0.0962,0.0,0.0
-0.4971,0.3244,-0.0473,0.0,0.0
-0.512,0.0744,0.4208,0.0,0.0
-0.1301,0.3244,0.0723,0.0,0.0
-0.4159,0.5544,0.2954,0.0,0.0
-0.4414,0.0444,0.1253,0.0,0.0
0.5789,0.0444,0.1799,0.0,0.0
-0.3648,0.5244,0.1709,0.0,0.0
0.0139,0.0744,0.4208,0.0,0.0
-0.5273,0.2719,0.3549,0.0,0.0
-0.2072,0.3244,-0.543,0.0,0.0
0.2974,0.2744,0.4473,0.0,0.0
-0.4103,0.0444,0.42,0.0,0.0
-0.3133,0.5544,0.1806,0.0,0.0
0.189,0.3244,0.4211,0.2511194029850746,0.02242112627569435
-0.4002,0.1836,0.6027,0.0,0.0
-0.2803,0.0444,0.0793,0.0,0.0
-0.1763,0.5544,0.364,0.7472636815920398,0.06671923064109542
-0.506,0.5244,0.3601,0.0,0.0
0.1161,0.2744,0.4642,0.0,0.0
-0.386,0.0744,0.3094,0.0,0.0
-0.4003,0.0444,-0.3069,0.0,0.0
-0.058,0.3047,-0.3061,2.8088308457711446,0.2507856833501761
-0.1658,0.5244,-0.133,0.0,0.0
-0.2746,0.2744,-0.1317,0.0,0.0
-0.2662,0.3244,-0.3135,0.0,0.0
-0.4552,0.3244,0.2748,0.0,0.0
-0.0277,0.0744,0.0677,0.2511194029850746,0.02242112627569435
-0.1529,0.0774,0.3621,0.0,0.0
-0.0057,0.0444,-0.5276,0.0,0.0
0.0058,0.0444,-0.2358,0.0,0.0
0.5525,0.2744,0.5908,0.0,0.0
-0.5273,0.4441,-0.0649,0.0,0.0
0.0272,0.3244,0.1217,1.2394278606965172,0.11066197292585149
-0.0681,0.0444,-0.5276,0.0,0.0
-0.3241,0.2744,-0.3716,0.0,0.0
0.1168,0.0444,0.3389,0.0,0.0
0.1287,0.2744,0.3188,0.25671641791044775,0.022920854201601355
-0.2383,0.0444,-0.344,0.0,0.0
-0.0721,0.5016,-0.6825,0.9536069651741294,0.08514253350953371
0.6414,0.0596,0.2236,0.0,0.0
-0.1017,0.529,-0.7419,0.0,0.0
0.4028,0.3244,0.4665,0.2891791044776119,0.02581927617186199
0.552,0.3244,0.5064,4.112562189054726,0.36718897489144803
-0.0359,0.0444,-0.0138,0.0,0.0
0.5374,0.237,0.5927,0.0,0.0
0.0052,0.0444,0.1753,0.0,0.0
-0.3548,0.5544,0.3007,0.0,0.0
-0.081,0.5244,-0.3649,0.0,0.0
-0.0756,0.2744,-0.3797,0.0,0.0
0.1879,0.0444,0.1645,0.9038557213930349,0.08070050750147145
-0.1475,0.5544,0.5754,0.0,0.0
-0.2578,0.5544,-0.6204,0.0,0.0
0.5012,0.0744,0.5174,0.0,0.0
-0.1047,0.1713,0.6027,0.0,0.0
-0.1639,0.2744,-0.0899,0.0,0.0
0.5331,0.0,-0.0648,0.45360696517412935,0.04050017212850782
-0.5273,0.1479,-0.1208,0.0,0.0
-0.5024,0.0575,0.0962,0.0,0.0
-0.1556,0.4622,-0.3301,2.5666666666666664,0.22916412175593293
0.1245,0.0744,-0.5116,0.0,0.0
-0.0834,0.4218,-0.7419,0.0,0.0
-0.4584,0.2744,0.1806,0.0,0.0
-0.137,0.0744,0.072,0.0,0.0
-0.4812,0.1957,0.6027,0.0,0.0
-0.058,0.2975,-0.4165,0.9927860696517414,0.08864062899088278
-0.4872,0.2744,0.0885,0.0,0.0
-0.1529,0.1074,0.2265,1.3205223880597015,0.11790247531899302
0.2001,0.0744,0.2382,0.0,0.0
-0.2127,0.5544,-0.6575,0.0,0.0
-0.1139,0.5244,0.4746,0.0,0.0
-0.5234,0.3244,0.318,0.0,0.0
0.377,0.3244,0.5143,0.28805970149253735,0.025719330586680595
-0.0909,0.5244,0.1035,0.2835820895522388,0.025319548245954986
0.2945,0.1722,0.3889,0.8261194029850745,0.07375984186387412
-0.1661,0.0744,0.5908,0.0,0.0
-0.3579,0.5244,-0.2661,0.0,0.0
-0.0661,0.421,-0.708,0.0,0.0
-0.4116,0.3244,-0.0177,0.0,0.0
-0.3508,0.5244,-0.0043,0.0,0.0
-0.1529,0.181,0.3697,3.7574626865671648,0.3354840142589036
-0.1529,0.2387,0.2879,8.227985074626867,0.7346333662783598
0.3092,0.0444,0.3918,0.0,0.0
0.1033,0.0744,0.4222,0.0,0.0
-0.0888,0.2744,0.5252,0.0,0.0
-0.2585,0.5544,-0.6407,0.0,0.0
-0.2751,0.5544,0.341,0.454726368159204,0.040600117713689224
-0.4435,0.5244,-0.3708,0.0,0.0
-0.5273,0.3283,-0.4288,0.0,0.0
-0.0111,0.2744,0.593,0.0,0.0
-0.5273,0.3082,-0.4605,0.0,0.0
-0.1771,0.0744,0.568,0.0,0.0
-0.4055,0.2744,0.4355,0.0,0.0
-0.0758,0.2744,0.4381,0.0,0.0
-0.3004,0.5544,-0.2524,0.0,0.0
-0.1173,0.3483,-0.4918,0.0,0.0
-0.2241,0.0444,0.1627,0.0,0.0
-0.3943,0.5544,0.4877,0.0,0.0
-0.2586,0.5244,-0.3945,0.0,0.0
-0.511,0.2744,0.2551,0.0,0.0
-0.4012,0.3244,-0.287,0.0,0.0
0.3162,0.3244,0.5848,0.0,0.0
0.3623,0.2744,0.3452,0.0,0.0
-0.1015,0.2744,-0.1606,0.0,0.0
-0.2143,0.2744,-0.4414,0.0,0.0
-0.1766,0.4282,-0.7419,0.0,0.0
-0.4681,0.5244,0.1568,0.0,0.0
-0.2022,0.0744,0.2285,0.0,0.0
-0.1926,0.0744,-0.1829,0.0,0.0
0.4162,0.0898,0.4976,0.0,0.0
-0.3492,0.5244,-0.3863,0.0,0.0
-0.5136,0.3491,0.3937,0.0,0.0
0.4252,0.0744,0.1217,0.0,0.0
0.4243,0.2009,0.6027,0.0,0.0
-0.4975,0.0744,0.0747,0.0,0.0
-0.4188,0.5244,-0.4237,0.0,0.0
0.2206,0.2744,0.4237,0.0,0.0
0.1043,0.3244,0.4602,0.0,0.0
-0.075,0.3244,0.5801,0.0,0.0
-0.4276,0.0444,-0.3414,0.0,0.0
0.153,0.0744,-0.475,0.0,0.0
-0.417,0.5244,0.0576,0.0,0.0
-0.204,0.0744,-0.0307,0.0,0.0
-0.5273,0.4819,-0.5308,0.0,0.0
0.3319,0.0444,0.4475,0.0,0.0
0.1866,0.0744,0.5436,0.0,0.0
-0.5273,0.4027,-0.671,0.0,0.0
-0.5084,0.0444,0.5022,0.0,0.0
-0.2378,0.3244,-0.641,0.0,0.0
0.4848,0.0744,0.479,0.0,0.0
-0.5071,0.3244,-0.377,0.0,0.0
-0.1717,0.5244,-0.0161,0.0,0.0
-0.147,0.2235,0.3889,0.8911691542288558,0.07956779086941557
-0.1012,0.5544,-0.3948,0.0,0.0
-0.5273,0.5173,-0.4085,0.0,0.0
-0.4617,0.3244,-0.0873,0.0,0.0
-0.3974,0.3244,0.1243,0.0,0.0
0.1529,0.3156,0.2567,0.42114427860696513,0.03760175015824718
-0.2138,0.2579,-0.5288,0.0,0.0
-0.3128,0.0744,-0.1449,0.0,0.0
-0.1415,0.0744,-0.0051,0.0,0.0
0.0081,0.0744,-0.3001,0.0,0.0
-0.1436,0.5244,0.2133,0.0,0.0
0.0533,0.0744,0.4839,0.0,0.0
-0.2551,0.3244,-0.4165,0.0,0.0
-0.0536,0.2744,0.3229,0.0,0.0
0.5243,0.0444,0.3304,0.0,0.0
-0.4377,0.053,-0.0863,0.0,0.0
-0.1568,0.3244,-0.2447,0.2544776119402985,0.022720963031238554
-0.1529,0.1329,-0.0636,0.0,0.0
-0.5273,0.3143,-0.681,0.0,0.0
-0.4216,0.5544,0.3889,0.0,0.0
-0.5273,0.4159,-0.365,0.0,0.0
-0.1116,0.5544,-0.5373,0.0,0.0
-0.5084,0.3882,0.3937,0.0,0.0
0.1371,0.0444,0.0821,0.0,0.0
-0.472,0.3742,-0.7419,0.0,0.0
0.5433,0.0744,-0.3049,0.0,0.0
-0.223,0.0444,0.2331,0.0,0.0
0.6414,0.3202,0.2765,2.3412935323383084,0.2090417439394108
-0.2691,0.2744,0.4771,0.0,0.0
-0.2554,0.0444,0.4967,0.0,0.0
-0.3068,0.3105,-0.7419,0.0,0.0
0.6365,0.0444,-0.3486,2.05771144278607,0.18372219569345585
-0.298,0.2744,0.5204,0.0,0.0
-0.0608,0.2744,0.5901,0.0,0.0
0.4442,0.0082,-0.0963,0.2869402985074627,0.02561938500149919
-0.191,0.3244,0.3035,0.0,0.0
-0.3362,0.3244,0.2769,0.0,0.0
0.6034,0.0444,0.5748,0.0,0.0
-0.2991,0.0444,-0.2264,0.0,0.0
-0.0534,0.1116,0.3889,0.0,0.0
-0.4151,0.5244,-0.2117,0.0,0.0
0.3506,0.3244,0.3234,3.240796019900497,0.28935357416517676
-0.3492,0.2744,0.352,0.0,0.0
-0.5273,0.2254,-0.2629,0.0,0.0
0.2881,0.0444,0.5246,0.5055970149253731,0.0451420893069329
-0.4246,0.0444,-0.0557,0.0,0.0
-0.1162,0.5244,-0.7019,0.0,0.0
0.4162,0.1916,0.4509,1.7797263681592037,0.15890237537340782
-0.4342,0.0744,-0.3851,0.0,0.0
-0.204,0.5244,-0.0437,0.0,0.0
0.1507,0.0444,-0.5279,0.0,0.0
-0.3126,0.5244,-0.6055,0.0,0.0
-0.3634,0.2744,-0.1062,0.0,0.0
-0.206,0.2744,0.1582,0.0,0.0
-0.2055,0.0744,0.2841,0.0,0.0
-0.3887,0.2744,-0.3085,0.0,0.0
-0.5014,0.3244,-0.1019,0.0,0.0
0.5347,0.0444,-0.2244,0.0,0.0
-0.447,0.5544,0.4163,0.0,0.0
-0.1529,0.2505,0.2691,4.3961442786069655,0.3925085231374031
-0.058,0.5339,-0.2369,0.0,0.0
-0.4312,0.2744,0.2263,0.0,0.0
0.6414,0.0636,-0.1321,1.2427860696517412,0.1109618096813957
0.4264,0.0325,-0.0612,0.0,0.0
-0.4974,0.3244,-0.3027,0.0,0.0
0.4898,0.0444,-0.4153,0.0,0.0
-0.4082,0.0444,0.1029,0.0,0.0
-0.4399,0.0744,-0.1489,0.0,0.0
-0.5157,0.3244,-0.3557,0.0,0.0
-0.5146,0.2744,0.392,0.0,0.0
0.6414,0.309,0.5114,0.530223880597015,0.04734089218092374
-0.2831,0.0444,-0.4885,0.0,0.0
-0.2718,0.352,-0.7419,0.0,0.0
-0.2137,0.5044,0.3937,0.0,0.0
-0.2595,0.2744,0.206,0.0,0.0
-0.5011,0.3244,-0.6384,0.0,0.0
-0.3921,0.2744,-0.1438,0.0,0.0
0.423,0.3038,0.2614,0.4524875621890548,0.04040022654332642
0.1111,0.0444,0.0791,0.0,0.0
-0.3757,0.0744,0.0387,0.0,0.0
-0.217,0.3244,0.0035,0.2544776119402985,0.022720963031238554
-0.254,0.0444,0.2062,0.0,0.0
-0.4246,0.3244,0.5129,0.0,0.0
-0.4634,0.3244,0.2138,0.0,0.0
-0.4857,0.3984,-0.7419,0.0,0.0
0.5913,0.0744,0.0978,0.25223880597014925,0.02252107186087575
0.0934,0.0444,0.0244,0.0,0.0
-0.1442,0.5244,-0.6733,0.0,0.0
0.6414,0.32,0.366,0.0,0.0
-0.4851,0.0744,-0.074,0.0,0.0
0.3885,0.0744,0.1998,0.0,0.0
0.0169,0.278,0.0962,0.4513681592039801,0.04030028095814502
0.2083,0.0744,0.5651,0.0,0.0
-0.3433,0.2744,-0.1911,0.0,0.0
-0.3199,0.463,0.3937,0.0,0.0
-0.5058,0.2744,0.3981,0.0,0.0
-0.4125,0.2004,0.6027,0.0,0.0
-0.3148,0.2744,0.2219,0.0,0.0
0.5467,0.2849,0.3015,0.2511194029850746,0.02242112627569435
-0.4822,0.3244,0.3458,0.0,0.0
-0.5273,0.3689,0.2109,0.0,0.0
0.2063,0.0744,0.4733,0.0,0.0
0.2067,0.3244,0.5497,0.2533582089552239,0.02262101744605715
0.3291,0.0444,-0.4799,0.0,0.0
-0.3666,0.2744,0.563,0.0,0.0
0.0119,0.0444,-0.3215,0.0,0.0
0.6414,0.2749,0.4698,0.0,0.0
-0.1723,0.3244,-0.2702,0.7813432835820895,0.06976201845661807
0.4565,0.0744,-0.3435,0.0,0.0
-0.3983,0.0444,0.5,0.0,0.0
-0.2414,0.3244,0.3837,0.0,0.0
0.4281,0.3036,0.6027,0.0,0.0
-0.3456,0.5244,-0.0513,0.0,0.0
0.0731,0.0744,0.3827,0.0,0.0
-0.5186,0.2744,-0.1721,0.0,0.0
-0.3639,0.0744,-0.1064,0.0,0.0
-0.3864,0.0444,0.1261,0.0,0.0
-0.1529,0.1699,0.1821,6.8141791044776125,0.60840209219425
-0.3763,0.2744,0.2864,0.0,0.0
0.4144,0.2744,0.5235,0.0,0.0
-0.5273,0.1474,0.0407,0.0,0.0
-0.1708,0.4816,0.179,0.0,0.0
-0.3533,0.5244,0.3061,0.0,0.0
-0.2025,0.0744,-0.1788,0.0,0.0
0.1385,0.0444,0.1802,0.0,0.0
-0.3568,0.2744,-0.2284,0.0,0.0
0.6315,0.0444,0.1122,0.5279850746268657,0.04714100101056093
0.1428,0.3244,0.5396,0.0,0.0
-0.412,0.2744,0.1702,0.0,0.0
0.4191,0.0744,0.3788,0.0,0.0
0.1017,0.0744,0.2191,1.0414179104477612,0.09298270941376365
-0.4508,0.4322,0.3937,0.0,0.0
-0.3234,0.5327,-0.7419,0.0,0.0
-0.1891,0.0742,0.0962,0.0,0.0
-0.4318,0.5244,-0.4811,0.0,0.0
0.5526,0.3244,0.4876,2.454228855721393,0.21912514297771218
-0.3812,0.5244,-0.4024,0.0,0.0
-0.0921,0.0444,-0.0664,0.0,0.0
-0.5273,0.5342,-0.1419,0.0,0.0
-0.2521,0.0744,-0.3574,0.0,0.0
-0.231,0.2744,-0.4415,0.0,0.0
-0.1674,0.0444,0.1958,0.0,0.0
-0.4409,0.3244,-0.0411,0.0,0.0
0.1576,0.3244,0.4577,0.0,0.0
-0.1828,0.2744,-0.5083,0.0,0.0
0.1758,0.0444,0.1003,0.0,0.0
-0.1851,0.0744,0.2402,0.0,0.0
0.5785,0.2744,0.3412,1.7718905472636817,0.15820275627713803
0.4162,0.1815,0.5668,0.0,0.0
0.6034,0.0744,-0.4174,0.0,0.0
-0.3595,0.2744,-0.5087,0.0,0.0
-0.3758,0.0444,-0.4608,0.0,0.0
-0.3792,0.0744,0.302,0.0,0.0
-0.3133,0.5544,0.0028,2.6455223880597014,0.23620473297871164
0.387,0.0744,0.4063,0.0,0.0
0.2531,0.0444,-0.5234,0.0,0.0
-0.2254,0.2744,0.1322,0.0,0.0
-0.3242,0.3244,-0.5047,0.0,0.0
-0.3426,0.0744,0.1037,0.0,0.0
0.1471,0.0829,0.3889,0.0,0.0
-0.4072,0.3244,0.5331,0.0,0.0
-0.2956,0.2744,0.1327,0.0,0.0
0.4001,0.0444,0.5378,0.0,0.0
-0.2164,0.5544,0.3898,0.2511194029850746,0.02242112627569435
-0.4224,0.2744,0.0991,0.0,0.0
-0.3737,0.0444,-0.2638,0.0,0.0
-0.1426,0.3443,-0.3848,4.730597014925372,0.4223700429766017
0.5781,0.0444,0.5121,0.0,0.0
-0.0637,0.2744,0.4645,0.0,0.0
-0.1708,0.422,0.2038,0.9804726368159205,0.08754122755388735
-0.1258,0.3244,-0.7272,0.0,0.0
-0.5262,0.5544,-0.0901,0.0,0.0
-0.4943,0.0444,-0.4463,0.0,0.0
-0.1669,0.5544,-0.4682,0.0,0.0
-0.5273,0.552,0.3081,0.0,0.0
-0.3672,0.0744,-0.2286,0.0,0.0
-0.1125,0.0444,0.3595,0.0,0.0
-0.1696,0.0744,-0.0404,0.44800995024875623,0.040000444202600814
0.1612,0.0444,-0.1354,0.0,0.0
-0.4276,0.3244,0.3798,0.0,0.0
0.5332,0.0,-0.0959,2.093532338308458,0.18692045441926067
-0.2574,0.3244,0.3017,0.0,0.0
-0.0384,0.2744,0.5349,0.0,0.0
0.3875,0.0444,-0.3897,0.0,0.0
-0.5273,0.1296,-0.0346,0.0,0.0
0.2116,0.2744,0.3978,0.28134328358208954,0.025119657075592182
-0.4236,0.5244,0.3864,0.0,0.0
-0.4695,0.5244,-0.6756,0.0,0.0
-0.1675,0.2744,0.5858,0.0,0.0
-0.1529,0.2648,0.2866,0.4883084577114428,0.043598485269131265
-0.4889,0.3244,0.1919,0.0,0.0
-0.3842,0.2744,-0.6679,0.0,0.0
-0.4952,0.5244,-0.1934,0.0,0.0
-0.3616,0.5244,-0.139,0.0,0.0
-0.0904,0.0444,-0.0573,0.0,0.0
-0.4218,0.3559,0.3937,0.0,0.0
-0.046,0.0516,0.6027,0.0,0.0
-0.4366,0.2744,0.4397,0.0,0.0
0.0508,0.2744,0.4394,0.0,0.0
-0.1556,0.0744,0.4593,0.0,0.0
-0.2173,0.0744,0.1148,0.0,0.0
-0.0555,0.0744,0.287,0.0,0.0
-0.2007,0.3244,0.3636,0.0,0.0
-0.2342,0.0444,0.396,0.0,0.0
-0.1339,0.5544,-0.1692,0.0,0.0
-0.4441,0.0744,-0.3702,0.0,0.0
0.2853,0.0744,-0.3185,0.0,0.0
-0.2678,0.0744,0.2146,0.0,0.0
-0.2486,0.0444,-0.0992,0.0,0.0
0.5648,0.2744,0.3222,2.728855721393035,0.24364512654221596
0.4451,0.0744,-0.1949,0.0,0.0
-0.3209,0.5244,-0.0232,0.0,0.0
-0.3595,0.2744,0.5287,0.0,0.0
0.6414,0.0044,0.0776,0.2891791044776119,0.02581927617186199
-0.1047,0.241,0.3889,6.568532338308458,0.5864695887794424
-0.1096,0.0744,-0.414,0.0,0.0
-0.341,0.5244,-0.0766,0.0,0.0
-0.0012,0.0576,-0.0863,0.0,0.0
0.5583,0.0114,0.1062,0.9524875621890547,0.08504258792435232
0.0117,0.3244,0.3281,1.2416666666666667,0.1108618640962143
0.5071,0.0744,-0.4805,0.0,0.0
0.6019,0.0744,0.4807,0.0,0.0
-0.0004,0.0744,-0.388,0.0,0.0
-0.2488,0.3244,-0.4526,0.0,0.0
0.6363,0.0744,0.5305,0.0,0.0
-0.1273,0.2744,-0.2274,0.0,0.0
0.5184,0.0744,0.3694,0.0,0.0
-0.4183,0.5544,0.3568,0.0,0.0
0.5664,0.0444,0.1643,0.0,0.0
0.2733,0.2744,0.3964,3.364800995024875,0.300425323990272
0.4162,0.2679,0.5338,0.0,0.0
-0.3053,0.0744,0.358,0.0,0.0
0.316,0.0744,-0.2058,0.0,0.0
-0.1053,0.0744,-0.3004,0.0,0.0
-0.3955,0.5544,0.1762,0.0,0.0
-0.5119,0.0444,-0.2789,0.0,0.0
-0.4793,0.0744,-0.0201,0.0,0.0
-0.184,0.0444,0.0763,0.0,0.0
-0.4188,0.0744,0.457,0.0,0.0
-0.284,0.3244,0.2454,0.0,0.0
-0.2186,0.2744,-0.6953,0.0,0.0
-0.1783,0.3244,0.0757,1.3261194029850745,0.11840220324490001
0.3096,0.0744,0.5658,0.0,0.0
-0.3232,0.2744,0.0803,0.0,0.0
0.1878,0.0444,0.526,0.0,0.0
-0.289,0.3244,0.129,0.0,0.0
-0.3955,0.2744,0.2837,0.0,0.0
-0.4277,0.2744,-0.4575,0.0,0.0
-0.4986,0.3244,-0.6151,0.0,0.0
-0.1708,0.4572,-0.0389,0.0,0.0
0.0418,0.0744,0.0005,0.0,0.0
-0.3185,0.5244,0.1378,0.0,0.0
-0.1453,0.5244,-0.6753,0.0,0.0
0.6414,0.2938,0.1977,0.4524875621890548,0.04040022654332642
0.0279,0.0444,-0.0684,0.6180348258706467,0.05518106808515365
-0.1892,0.5244,-0.2383,0.0,0.0
-0.5273,0.353,-0.3491,0.0,0.0
-0.3588,0.5244,0.4685,0.0,0.0
-0.3896,0.0444,-0.2438,0.0,0.0
-0.1606,0.0444,0.2913,0.0,0.0
0.2164,0.0444,-0.4154,0.0,0.0
-0.4757,0.2744,-0.3034,0.0,0.0
-0.3507,0.2744,-0.5451,0.0,0.0
-0.1529,0.1459,-0.1295,0.0,0.0
-0.3336,0.3244,-0.2228,0.0,0.0
-0.5265,0.3244,0.5496,0.0,0.0
-0.5273,0.4904,-0.3497,0.0,0.0
-0.4177,0.5544,-0.4231,0.0,0.0
0.4005,0.04,0.0042,4.642786069651741,0.4145298670723718
0.2352,0.0744,0.5449,0.0,0.0
-0.3585,0.2744,0.0153,0.0,0.0
0.3458,0.0106,-0.0862,0.0,0.0
-0.2835,0.3244,0.4928,0.0,0.0
0.5872,0.0794,0.6027,0.0,0.0
0.5634,0.01,-0.0557,0.0,0.0
-0.5076,0.2934,0.6027,0.0,0.0
-0.2294,0.3244,-0.4442,0.0,0.0
-0.3265,0.2744,-0.3221,0.0,0.0
-0.1676,0.3244,-0.3412,0.7036069651741294,0.06282135281902076
-0.1244,0.5244,-0.3166,0.0,0.0
-0.1065,0.0444,-0.2695,0.0,0.0
-0.5273,0.2924,0.3869,0.0,0.0
-0.5273,0.4427,-0.2215,0.0,0.0
-0.3921,0.0444,0.4899,0.0,0.0
-0.3034,0.0594,0.6027,0.0,0.0
-0.3727,0.2744,0.2639,0.0,0.0
-0.1354,0.0744,-0.2655,0.0,0.0
-0.1962,0.2744,0.0937,0.0,0.0
-0.5157,0.2744,-0.7388,0.0,0.0
0.22,0.0744,-0.1764,0.0,0.0
-0.1708,0.427,0.2961,0.0,0.0
-0.382,0.0744,0.4275,0.0,0.0
0.5543,0.01,0.0157,0.0,0.0
0.2832,0.0744,0.4105,0.0,0.0
-0.3024,0.5544,-0.6756,0.0,0.0
-0.1816,0.3244,-0.1696,0.0,0.0
-0.1394,0.5544,0.4179,1.8077114427860697,0.16140101500294288
-0.3531,0.3244,-0.6401,0.0,0.0
0.0253,0.0444,0.3226,0.0,0.0
-0.2974,0.0744,-0.4244,0.0,0.0
-0.1338,0.5244,0.0651,0.0,0.0
-0.3637,0.5244,-0.6968,0.0,0.0
0.3352,0.0444,0.4183,0.0,0.0
0.1195,0.3244,0.3413,5.04776119402985,0.4506879587779987
-0.2467,0.5244,0.3898,0.0,0.0
-0.058,0.309,-0.6859,1.9710199004975126,0.17598196537440733
-0.5273,0.5409,0.1076,0.0,0.0
-0.5124,0.5544,-0.3196,0.0,0.0
-0.1559,0.5244,0.308,0.0,0.0
-0.236,0.0744,0.1367,0.27350746268656717,0.024420037979322375
0.037,0.0444,-0.3616,0.0,0.0
0.4308,0.0,-0.0398,1.376492537313433,0.12289975457806308
0.0877,0.0444,-0.348,0.0,0.0
-0.4033,0.4337,-0.7419,0.0,0.0
-0.3858,0.3244,-0.0782,0.0,0.0
-0.1606,0.2744,-0.7164,0.0,0.0
-0.5273,0.4881,-0.7381,0.0,0.0
-0.4185,0.0744,-0.0535,0.0,0.0
0.6176,0.1479,0.6027,0.0,0.0
-0.2185,0.3244,-0.7023,0.0,0.0
-0.2539,0.2744,0.2355,0.0,0.0
-0.5273,0.4158,0.0518,0.0,0.0
-0.3878,0.5244,-0.5488,0.0,0.0
-0.5273,0.3701,0.3529,0.0,0.0
0.5895,0.0744,0.1725,0.0,0.0
-0.1656,0.0464,-0.0863,0.0,0.0
-0.413,0.3244,0.462,0.0,0.0
-0.1408,0.3244,-0.4794,0.0,0.0
-0.4615,0.2744,-0.5279,0.0,0.0
-0.1184,0.2744,-0.5039,0.0,0.0
0.5076,0.3244,0.1152,0.0,0.0
-0.1623,0.5544,0.4851,0.0,0.0
-0.5273,0.5175,-0.1524,0.0,0.0
0.3688,0.2025,0.6027,0.0,0.0
-0.1182,0.5544,0.3414,0.45360696517412935,0.04050017212850782
-0.2144,0.5244,0.0794,0.0,0.0
0.6414,0.2843,0.5072,1.1538557213930347,0.10302168819198437
-0.2572,0.3244,0.1989,0.0,0.0
-0.4685,0.0744,0.3492,0.0,0.0
-0.0866,0.1035,0.6027,0.0,0.0
-0.2676,0.3244,-0.4886,0.0,0.0
-0.403,0.2744,-0.1577,0.0,0.0
0.2243,0.285,0.3015,0.0,0.0
-0.1529,0.0946,0.285,0.0,0.0
0.0107,0.3244,0.5016,0.0,0.0
0.6065,0.0744,0.5706,0.0,0.0
-0.4214,0.1343,0.6027,0.0,0.0
-0.1371,0.5244,-0.3672,0.0,0.0
-0.4826,0.1935,0.6027,0.0,0.0
-0.1035,0.3727,-0.5499,5.093034825870646,0.45473020244533535
-0.5273,0.379,0.0484,0.0,0.0
-0.4996,0.1902,0.6027,0.0,0.0
0.0999,0.0444,0.3729,0.0,0.0
-0.2435,0.2542,-0.5288,0.0,0.0
-0.1143,0.2744,0.2546,0.0,0.0
-0.5273,0.3883,-0.7019,0.0,0.0
0.6346,0.0444,-0.3118,1.0794776119402985,0.09638085930993127
0.4238,0.0744,-0.4643,0.0,0.0
-0.4961,0.3244,0.2547,0.0,0.0
-0.1891,0.1674,-0.5288,0.0,0.0
-0.1318,0.2744,0.0141,0.25223880597014925,0.02252107186087575
-0.2786,0.2744,-0.4038,0.0,0.0
0.214,0.0676,0.6027,0.0,0.0
0.3462,0.2744,0.4642,0.0,0.0
-0.5101,0.0444,0.3099,0.0,0.0
-0.1708,0.4477,0.073,2.3988805970149256,0.21418338904374293
-0.2683,0.5544,0.2002,0.0,0.0
-0.5273,0.5464,0.0247,0.0,0.0
0.1787,0.0444,-0.4136,0.0,0.0
-0.1529,0.1532,0.0994,0.0,0.0
-0.4004,0.1946,0.6027,0.0,0.0
0.0791,0.2701,0.6027,0.0,0.0
0.0696,0.0444,-0.4607,0.0,0.0
-0.3378,0.0744,0.3945,0.0,0.0
-0.4175,0.5244,0.0344,0.0,0.0
-0.0676,0.2744,0.0802,1.7752487562189054,0.15850259303268224
-0.5197,0.2744,0.1921,0.0,0.0
-0.1766,0.2744,-0.0843,0.0,0.0
-0.3532,0.2744,0.2671,0.0,0.0
-0.1921,0.3244,0.1731,0.0,0.0
-0.0769,0.5244,-0.4202,0.6213930348258706,0.05548090484069785
-0.1031,0.5544,0.169,1.0682835820895522,0.09538140345811727
-0.4752,0.5244,-0.6033,0.0,0.0
-0.1529,0.1733,-0.5193,0.0,0.0
-0.3681,0.0444,-0.2026,0.0,0.0
-0.3039,0.0444,-0.1469,0.0,0.0
-0.3899,0.5544,0.4624,0.0,0.0
0.1947,0.0744,-0.3749,0.0,0.0
0.618,0.1128,0.5927,0.0,0.0
0.3974,0.3244,0.3504,0.6191542288557214,0.05528101367033505
-0.4163,0.1786,-0.5288,0.0,0.0
0.4162,0.1883,0.5634,0.0,0.0
0.1213,0.0444,0.0425,0.0,0.0
0.212,0.0444,0.4116,0.0,0.0
-0.4502,0.3244,0.2941,0.0,0.0
-0.1173,0.0444,-0.2208,0.5033582089552239,0.0449421981365701
-0.3358,0.5244,0.1964,0.0,0.0
-0.1508,0.2744,0.3599,4.054477611940299,0.3620029095270354
-0.3833,0.1647,0.6027,0.0,0.0
-0.4522,0.3244,0.0212,0.0,0.0
-0.003,0.0744,0.5355,0.0,0.0
0.6414,0.045,0.3315,0.4513681592039801,0.04030028095814502
0.0814,0.0444,0.0711,0.0,0.0
-0.483,0.0444,-0.2371,0.0,0.0
0.1122,0.0444,-0.2303,0.0,0.0
-0.1625,0.2744,-0.3088,0.0,0.0
-0.5203,0.5244,0.3461,0.0,0.0
0.4803,0.0444,0.3885,0.0,0.0
-0.1582,0.5244,-0.7059,0.0,0.0
0.1192,0.0744,0.592,0.0,0.0
0.2713,0.0744,-0.4544,4.473880597014926,0.3994491887750004
-0.5273,0.276,-0.4414,0.0,0.0
0.366,0.0203,-0.0963,0.0,0.0
-0.4369,0.3244,-0.5244,0.0,0.0
-0.2254,0.5244,-0.2458,0.0,0.0
-0.1661,0.0444,0.4618,0.0,0.0
0.4162,0.1023,0.4697,0.0,0.0
-0.231,0.5544,-0.4769,0.0,0.0
-0.4731,0.5544,-0.3348,0.0,0.0
-0.4677,0.2744,0.1712,0.0,0.0
0.3801,0.0125,-0.0963,0.0,0.0
0.2275,0.0444,-0.2915,0.0,0.0
-0.2176,0.5544,0.218,2.0577114427860694,0.1837221956934558
-0.0539,0.0744,0.2381,0.0,0.0
-0.5273,0.2166,-0.2612,0.0,0.0
0.0884,0.3244,0.5471,0.0,0.0
-0.5195,0.3244,0.3536,0.0,0.0
-0.1285,0.5244,-0.5383,0.0,0.0
0.4162,0.1841,0.4341,3.583084577114428,0.3199147131006453
0.4697,0.2744,0.5396,0.0,0.0
-0.1162,0.1989,0.6027,0.0,0.0
0.5651,0.0744,-0.3243,0.0,0.0
0.1475,0.0744,-0.4942,0.0,0.0
-0.3158,0.0744,-0.3281,0.0,0.0
0.4659,0.2541,0.5927,0.0,0.0
0.1623,0.0744,-0.3645,0.0,0.0
-0.1994,0.2744,0.0802,0.0,0.0
-0.125,0.12,0.0865,0.8065920398009949,0.07201634665570968
0.3421,0.0744,-0.5057,0.0,0.0
-0.5273,0.2223,-0.3763,0.0,0.0
-0.3402,0.0744,-0.3011,0.0,0.0
-0.4807,0.0744,0.2055,0.0,0.0
0.2988,0.0444,-0.1324,0.0,0.0
-0.4356,0.5244,-0.2972,0.0,0.0
-0.3293,0.2744,-0.2166,0.0,0.0
-0.0868,0.3803,-0.6205,0.0,0.0
-0.2161,0.0444,-0.3149,0.0,0.0
-0.1608,0.0744,-0.3524,0.0,0.0
0.2495,0.0769,0.6027,0.0,0.0
0.2421,0.3244,0.5883,0.0,0.0
-0.2692,0.3244,0.1247,0.0,0.0
0.2511,0.2744,0.1042,0.0,0.0
-0.2768,0.3244,-0.4964,0.0,0.0
-0.4763,0.0744,-0.5033,0.0,0.0
0.3948,0.0744,0.5825,0.0,0.0
-0.0994,0.0444,-0.1898,0.0,0.0
-0.5273,0.2604,-0.4267,0.0,0.0
-0.4299,0.5544,-0.2427,0.0,0.0
-0.1708,0.4334,-0.2285,2.2110696517412936,0.1974147408633078
-0.4133,0.0744,0.1266,0.7797263681592039,0.06961765261135605
0.5025,0.2744,0.5674,0.0,0.0
0.4191,0.2744,0.5463,0.0,0.0
-0.2251,0.3244,0.287,0.0,0.0
-0.5273,0.0769,0.1739,0.48942786069651745,0.043698430854312666
0.6414,0.2747,0.1362,0.7058457711442786,0.06302124398938357
-0.5273,0.4113,-0.0382,0.0,0.0
-0.227,0.3244,-0.5471,0.0,0.0
-0.058,0.5312,0.5561,0.0,0.0
-0.3391,0.5244,-0.3506,0.0,0.0
0.5162,0.0444,0.3323,0.0,0.0
-0.4653,0.5244,0.438,0.0,0.0
-0.5273,0.2312,0.0847,0.0,0.0
-0.2896,0.0744,0.0341,0.0,0.0
-0.5052,0.5244,0.5917,0.0,0.0
-0.1279,0.5244,-0.3858,0.0,0.0
-0.2287,0.0744,0.3604,0.0,0.0
-0.3176,0.5544,0.1553,0.4513681592039801,0.04030028095814502
-0.4175,0.3244,-0.4827,0.0,0.0
0.3266,0.0444,-0.4683,0.0,0.0
-0.4001,0.0744,0.2741,0.0,0.0
-0.4837,0.0466,-0.0863,0.0,0.0
-0.1766,0.0744,-0.2632,0.0,0.0
-0.5273,0.3766,0.3297,0.0,0.0
-0.1623,0.5244,-0.147,0.0,0.0
-0.4955,0.5244,-0.2063,0.0,0.0
-0.4,0.0744,0.0827,0.0,0.0
0.2154,0.0444,-0.3293,0.0,0.0
-0.0646,0.0444,0.1338,0.0,0.0
-0.2044,0.3244,-0.6556,0.0,0.0
-0.5258,0.3244,0.3202,0.0,0.0
-0.058,0.5395,0.3499,0.0,0.0
-0.1245,0.3244,-0.0623,0.0,0.0
0.1529,0.2744,0.512,0.0,0.0
0.3759,0.0744,0.338,0.0,0.0
-0.1708,0.347,0.2327,0.6213930348258706,0.05548090484069785
-0.3091,0.5544,-0.0931,0.0,0.0
0.1715,0.2744,0.579,0.0,0.0
0.4141,0.0744,0.4283,0.0,0.0
-0.3311,0.5244,0.5494,0.0,0.0
0.5339,0.2744,0.3786,0.0,0.0
0.093,0.0444,-0.147,0.0,0.0
-0.1311,0.5544,0.1754,2.391044776119403,0.2134837699474731
-0.4731,0.0744,-0.1618,0.0,0.0
-0.1091,0.0444,-0.3893,0.0,0.0
-0.3915,0.5244,0.3493,0.0,0.0
-0.1166,0.0444,0.0073,0.0,0.0
-0.3168,0.2744,0.257,0.0,0.0
0.4037,0.0444,0.3213,0.0,0.0
-0.3948,0.3546,0.3937,0.0,0.0
0.0728,0.0744,-0.1068,0.0,0.0
-0.3194,0.0744,-0.1288,0.0,0.0
0.5193,0.0,0.0122,0.0,0.0
-0.1328,0.3767,-0.4264,2.0252487562189057,0.18082377372319522
-0.502,0.5244,-0.1324,0.0,0.0
0.1781,0.0444,0.3319,0.0,0.0
-0.5273,0.0826,0.4489,0.0,0.0
-0.4542,0.5244,-0.3206,0.0,0.0
-0.2238,0.0744,-0.1147,0.0,0.0
0.1227,0.0444,-0.3858,0.0,0.0
-0.3788,0.3244,0.5743,0.0,0.0
-0.1708,0.4266,0.0019,3.6405472636815923,0.32504525313995725
0.1122,0.0444,0.5377,0.0,0.0
-0.3447,0.0744,0.1792,0.0,0.0
-0.3344,0.0744,0.5633,0.0,0.0
0.5337,0.0291,0.1062,0.0,0.0
-0.388,0.0444,0.481,0.0,0.0
-0.114,0.1752,0.0915,0.9060945273631841,0.08090039867183424
-0.4877,0.0687,0.0962,0.0,0.0
-0.4494,0.059,0.0962,0.0,0.0
-0.4609,0.3244,-0.0902,0.0,0.0
-0.5152,0.0444,0.1552,0.0,0.0
-0.1923,0.3244,0.1332,0.0,0.0
0.6414,0.2856,0.2416,0.45584577114427854,0.04070006329887062
0.3534,0.0744,0.3652,0.0,0.0
-0.5064,0.5244,-0.2678,0.0,0.0
-0.4443,0.0744,0.4799,0.0,0.0
-0.3617,0.5244,-0.3822,0.0,0.0
-0.5273,0.5105,-0.1407,0.0,0.0
0.1755,0.0744,-0.3743,0.0,0.0
0.0059,0.2744,0.5839,0.0,0.0
0.3433,0.2744,0.4385,0.0,0.0
0.054,0.3244,0.3439,0.2869402985074627,0.02561938500149919
-0.1845,0.2744,0.0261,0.0,0.0
-0.0012,0.2107,0.3889,1.6258706467661692,0.14516540994347527
-0.3783,0.2744,-0.1364,0.0,0.0
-0.0991,0.0444,-0.3414,0.0,0.0
0.3045,0.1134,0.6027,0.0,0.0
0.4371,0.0744,0.4185,0.0,0.0
-0.2601,0.2744,0.5562,0.0,0.0
-0.0661,0.0744,0.3223,0.0,0.0
-0.269,0.3244,0.5325,0.0,0.0
-0.0512,0.0744,0.4368,0.0,0.0
-0.1708,0.4679,0.1615,0.0,0.0
-0.1778,0.5544,-0.095,0.0,0.0
-0.305,0.3244,-0.0515,0.0,0.0
-0.1995,0.5244,-0.4447,0.0,0.0
-0.1706,0.5544,-0.3054,0.0,0.0
-0.5144,0.2744,-0.6307,0.0,0.0
-0.3169,0.2744,0.3382,0.0,0.0
0.5227,0.0444,0.3754,0.0,0.0
-0.088,0.3244,-0.2496,0.0,0.0
0.1469,0.0744,-0.0384,0.0,0.0
0.6332,0.0444,0.0989,0.0,0.0
-0.0866,0.5544,0.3672,0.0,0.0
0.5292,0.3244,0.3209,0.7013681592039801,0.06262146164865796
-0.1389,0.5244,-0.3955,0.0,0.0
-0.4392,0.5244,0.3763,0.0,0.0
-0.0162,0.0444,0.5517,0.0,0.0
0.4464,0.0444,0.5818,0.0,0.0
-0.1036,0.3244,-0.4776,0.0,0.0
-0.4191,0.3924,0.3937,0.0,0.0
-0.4826,0.5244,0.5307,0.0,0.0
-0.2773,0.3244,-0.0503,0.0,0.0
0.229,0.0744,0.0928,0.0,0.0
-0.3355,0.2744,-0.2132,0.0,0.0
0.3924,0.2744,0.4222,0.0,0.0
-0.4275,0.1159,0.6027,0.0,0.0
0.4194,0.0744,-0.0937,0.0,0.0
0.353,0.3244,0.0978,0.8725124378109452,0.0779020311163922
-0.362,0.5544,0.3183,0.0,0.0
-0.1778,0.5244,-0.2128,0.0,0.0
-0.212,0.3244,-0.6124,0.0,0.0
0.2052,0.0744,-0.3248,0.0,0.0
-0.5273,0.1741,-0.3838,0.0,0.0
-0.3367,0.5544,0.4431,0.4569651741293532,0.040800008884052025
-0.3893,0.5244,-0.1645,0.0,0.0
-0.0621,0.1275,0.3889,0.0,0.0
-0.1598,0.2744,-0.3172,0.0,0.0
0.595,0.0444,-0.2044,0.0,0.0
0.0893,0.0744,-0.4081,0.0,0.0
-0.1984,0.5544,-0.3249,0.0,0.0
-0.1965,0.2744,-0.4368,0.0,0.0
-0.3019,0.3244,-0.5608,0.0,0.0
-0.1708,0.3704,-0.1027,1.7210199004975122,0.15366078468389432
-0.3019,0.3244,-0.1312,0.0,0.0
-0.5225,0.5244,0.2859,0.0,0.0
-0.5076,0.0444,-0.0335,0.0,0.0
-0.5273,0.3955,-0.3119,0.0,0.0
-0.2125,0.0744,0.1699,0.0,0.0
0.2249,0.2744,0.3543,0.0,0.0
-0.0978,0.5214,-0.5739,1.1247512437810945,0.10042310297726795
0.2039,0.0744,0.2119,0.0,0.0
-0.5223,0.5244,-0.1905,0.0,0.0
-0.1107,0.0444,-0.3289,0.0,0.0
-0.1408,0.3244,0.2342,0.0,0.0
-0.131,0.2744,0.2986,0.0,0.0
-0.058,0.3242,-0.0196,1.0727611940298507,0.09578118579884287
-0.058,0.5483,0.404,0.0,0.0
-0.0691,0.5244,-0.5527,0.0,0.0
-0.2048,0.5244,-0.4321,0.0,0.0
-0.4871,0.5544,0.4666,0.0,0.0
0.6124,0.0744,0.1329,0.0,0.0
0.1892,0.0444,0.5868,0.0,0.0
0.4619,0.3244,0.5996,0.0,0.0
-0.5273,0.2066,0.1909,0.0,0.0
-0.4879,0.3244,0.2303,0.0,0.0
-0.1627,0.0444,0.3189,0.0,0.0
-0.2554,0.0744,0.3273,0.0,0.0
0.4751,0.2753,0.0962,0.0,0.0
0.5984,0.2744,0.3156,0.0,0.0
-0.0696,0.0444,0.4234,0.0,0.0
-0.4303,0.0744,-0.402,0.0,0.0
-0.313,0.3244,-0.7364,0.0,0.0
-0.1708,0.4557,0.2704,0.0,0.0
-0.0778,0.5244,-0.5952,0.704726368159204,0.06292129840420217
-0.2713,0.5244,0.3665,0.0,0.0
-0.4455,0.2744,-0.2939,0.0,0.0
-0.0487,0.1982,0.6027,0.0,0.0
-0.2808,0.5244,0.1101,0.0,0.0
-0.4621,0.2744,-0.518,0.0,0.0
-0.0916,0.5244,-0.1495,0.0,0.0
0.4236,0.0506,-0.5288,0.0,0.0
-0.4068,0.2744,0.5328,0.0,0.0
-0.1878,0.37,0.3937,0.4625621890547264,0.041299736809959034
0.396,0.0744,-0.3792,0.0,0.0
-0.3033,0.5544,-0.1643,0.0,0.0
-0.408,0.3244,0.2578,0.0,0.0
-0.4851,0.3243,0.6027,0.0,0.0
-0.4471,0.3244,0.2941,0.0,0.0
-0.0312,0.0744,0.0634,0.0,0.0
-0.0344,0.2217,0.3889,2.512437810945274,0.22432231340714506
-0.0671,0.0744,0.5658,0.0,0.0
0.1601,0.0444,-0.4914,0.0,0.0
-0.4818,0.0444,0.1618,0.0,0.0
-0.0331,0.0598,0.0962,0.2511194029850746,0.02242112627569435
-0.3272,0.3244,0.1088,0.0,0.0
-0.3385,0.0744,0.147,0.0,0.0
0.3558,0.0152,0.0679,2.977238805970149,0.2658219413874669
0.5212,0.2744,0.5817,0.0,0.0
-0.0799,0.0744,0.4754,0.0,0.0
-0.1526,0.2744,-0.6094,0.0,0.0
-0.1708,0.3323,0.2436,0.0,0.0
-0.1582,0.5544,-0.4828,0.0,0.0
0.0126,0.2744,0.4273,0.0,0.0
0.0312,0.0744,0.4623,0.0,0.0
0.5497,0.0444,0.5776,0.0,0.0
-0.5273,0.0543,-0.2425,0.0,0.0
-0.1011,0.4568,-0.5603,0.4513681592039801,0.04030028095814502
0.6268,0.0744,0.5672,0.0,0.0
0.1948,0.0603,0.0962,0.0,0.0
-0.4106,0.0744,-0.0239,0.0,0.0
0.4327,0.0345,-0.0863,0.0,0.0
-0.2727,0.5244,0.3656,0.0,0.0
-0.1151,0.5244,0.4257,0.0,0.0
-0.2025,0.3244,0.5166,0.0,0.0
0.2625,0.0444,0.4435,0.0,0.0
-0.2793,0.0744,-0.153,0.0,0.0
0.1986,0.296,0.2666,0.9558457711442786,0.08534242467989651
-0.4941,0.5244,-0.4257,0.0,0.0
-0.5107,0.5244,-0.2764,0.0,0.0
