x,y,z,SaliencyScore,NormalizedScore
0.1743,-0.0203,-0.0322,3.2848736587054344,0.16821767260480366
-0.582,0.005,0.6091,0.0,0.0
0.2728,0.215,0.7359,0.0,0.0
0.0025,0.205,-0.0866,0.0,0.0
-0.779,0.1475,0.3386,0.0,0.0
-0.136,0.005,0.6673,0.0,0.0
-0.0193,0.005,-0.3875,0.0,0.0
-0.0717,0.205,-0.1579,0.0,0.0
-0.2554,-0.005,0.4298,0.0,0.0
0.5282,-0.005,-0.2758,0.0,0.0
-0.6583,-0.005,0.5386,0.23156801661474558,0.011858548258441902
0.5836,-0.205,-0.3218,0.0,0.0
-0.2196,-0.0967,0.7421,3.6247836621668394,0.18562439067623854
0.4448,-0.0934,-0.4549,0.6787815853236414,0.03476025879641939
-0.2948,0.205,0.7244,0.0,0.0
-0.7465,0.205,0.5792,0.0,0.0
0.2334,-0.005,0.6858,2.046728971962617,0.10481254985376229
-0.4547,-0.205,0.443,0.34510211145725167,0.017672604803686962
-0.318,-0.005,0.0609,0.0,0.0
0.1373,-0.205,-0.1742,0.22256836275527864,0.01139767792253833
-0.2421,0.005,0.3164,0.0,0.0
0.2837,0.215,0.5497,0.0,0.0
0.0642,-0.205,0.4696,0.0,0.0
-0.5191,0.205,0.5515,0.0,0.0
-0.3066,-0.005,0.6933,0.0,0.0
-0.4561,0.005,0.7197,0.0,0.0
-0.073,0.205,-0.2038,0.0,0.0
-0.2927,0.205,0.1546,0.7992384908272758,0.04092883098466719
0.5444,-0.005,-0.1687,0.2232606438213915,0.011433129486838606
0.322,-0.005,-0.3833,0.0,0.0
-0.0168,0.0886,0.3382,0.0,0.0
-0.1572,0.205,0.0572,0.0,0.0
-0.0838,0.205,0.2952,0.0,0.0
-0.0436,-0.205,0.3349,0.3423329871928003,0.017530798546485864
-0.4234,0.205,0.5784,0.0,0.0
0.2318,-0.0745,-0.1111,0.910349601938387,0.04661880705486129
0.1515,-0.005,0.4271,0.0,0.0
-0.0147,-0.005,0.7194,0.0,0.0
0.2198,0.215,-0.3553,0.0,0.0
-0.477,-0.1102,0.5389,0.0,0.0
-0.3643,0.205,0.5094,0.0,0.0
-0.3309,0.005,0.4417,0.0,0.0
-0.1172,0.005,0.5685,0.0,0.0
-0.3205,-0.005,0.59,0.0,0.0
0.0334,-0.005,0.3284,0.4562132225683627,0.023362580873881055
0.1866,0.1574,0.3383,0.0,0.0
-0.3095,0.215,0.3251,0.0,0.0
0.0877,-0.1952,0.5406,0.0,0.0
-0.4556,0.005,0.7174,0.0,0.0
-0.252,-0.005,-0.3601,0.0,0.0
-0.303,0.005,0.5173,0.0,0.0
-0.3154,-0.005,0.6969,0.0,0.0
0.1599,-0.1339,-0.6516,0.0,0.0
-0.0382,0.005,-0.6623,0.5659397715472482,0.028981653815474604
0.4013,-0.1632,-0.5225,0.0,0.0
-0.1796,0.005,0.0761,0.0,0.0
-0.0527,-0.005,-0.2221,0.0,0.0
0.0742,0.005,0.4055,0.0,0.0
-0.477,-0.0439,0.2171,0.3440636898580824,0.017619427457236547
0.0548,0.005,0.375,0.0,0.0
0.3458,-0.184,-0.5232,0.0,0.0
0.2598,0.005,0.3794,0.0,0.0
0.0539,-0.005,-0.1946,0.0,0.0
-0.3817,0.005,0.5696,0.0,0.0
0.3119,0.0109,0.5754,6.0432675666320534,0.30947443055924845
0.4475,0.0405,-0.453,0.45586708203530635,0.02334485509173092
-0.4755,-0.005,0.0493,0.0,0.0
0.1487,0.205,0.3897,0.3447559709241953,0.017654879021536826
-0.4362,0.205,0.6402,0.0,0.0
-0.2479,-0.005,-0.3276,0.0,0.0
-0.4593,-0.1894,-0.0742,0.0,0.0
-0.0102,0.005,-0.4533,0.0,0.0
0.0868,0.005,-0.1084,0.0,0.0
0.1897,0.205,-0.5908,0.0,0.0
0.2077,0.205,-0.3219,0.0,0.0
-0.0694,-0.005,0.3079,0.0,0.0
0.2966,0.005,-0.4059,0.0,0.0
0.1426,0.205,0.5826,0.34510211145725167,0.017672604803686962
-0.477,-0.0806,0.5139,0.0,0.0
-0.048,-0.005,0.2449,0.0,0.0
0.3585,0.205,-0.3752,0.0,0.0
-0.3143,0.205,0.4788,0.0,0.0
-0.0645,0.1826,0.3137,0.0,0.0
-0.5272,0.005,0.6183,0.0,0.0
-0.1521,-0.005,0.3038,0.0,0.0
-0.22,0.215,0.5126,0.0,0.0
0.1147,0.1812,0.0541,0.0,0.0
0.1873,0.205,0.616,0.0,0.0
-0.1149,-0.205,0.164,2.505711318795431,0.12831693698484445
0.0148,0.005,-0.0453,0.0,0.0
-0.0336,0.1942,0.269,0.0,0.0
0.0582,-0.005,-0.562,0.0,0.0
0.0627,0.205,0.4571,0.0,0.0
-0.6815,0.005,0.3903,0.0,0.0
0.2133,0.205,-0.5765,0.0,0.0
-0.6297,0.005,0.5129,0.0,0.0
-0.2302,0.215,0.3082,0.0,0.0
0.0307,-0.205,-0.0417,0.7587400484596747,0.038854914473101125
0.2489,0.0464,0.7422,1.6912426445136726,0.0866081715855712
0.6664,0.005,-0.2069,0.0,0.0
0.3256,0.054,-0.5754,0.0,0.0
-0.3794,0.005,0.3009,0.0,0.0
-0.3804,0.005,0.1562,0.22256836275527864,0.01139767792253833
0.2375,0.205,0.3766,0.0,0.0
-0.3961,0.1389,0.221,0.0,0.0
-0.5246,-0.005,0.4406,0.3447559709241953,0.017654879021536826
0.2867,0.0831,-0.6023,0.23295257874697128,0.011929451387042453
-0.1062,0.005,0.4786,0.0,0.0
-0.2812,0.215,0.6438,0.0,0.0
-0.7039,0.005,0.5698,0.0,0.0
-0.0549,0.205,0.5152,0.0,0.0
0.0206,0.205,-0.2225,0.0,0.0
-0.1106,0.005,-0.2729,0.0,0.0
-0.3763,0.005,0.6145,0.0,0.0
-0.0158,-0.005,0.2739,0.0,0.0
0.0962,0.205,-0.0782,1.7116649359640013,0.0876539927324293
-0.401,0.205,0.5772,0.0,0.0
0.2939,0.215,-0.5413,0.0,0.0
0.2065,-0.005,-0.5286,0.0,0.0
-0.37,-0.005,0.1859,0.0,0.0
0.0271,0.0073,0.1811,0.0,0.0
-0.2976,0.215,0.3895,0.0,0.0
0.0856,0.005,0.6744,0.22256836275527864,0.01139767792253833
0.0153,0.005,0.3145,0.0,0.0
0.6094,-0.005,-0.2252,0.0,0.0
-0.3037,0.1393,0.087,0.0,0.0
-0.022,0.1863,0.2522,0.34579439252336447,0.017708056367987234
-0.2538,-0.205,0.2657,0.0,0.0
-0.7573,0.005,0.5476,0.0,0.0
-0.2368,-0.205,0.5223,0.0,0.0
0.3666,0.205,-0.3358,0.0,0.0
-0.4128,0.2071,0.3381,0.0,0.0
0.312,0.1471,0.3591,2.7223952924887507,0.13941327661083044
-0.5639,0.005,0.69,0.0,0.0
0.0052,-0.205,-0.1337,0.0,0.0
0.0403,0.1214,0.3382,0.0,0.0
0.0284,0.205,0.6788,0.0,0.0
-0.6992,0.215,0.6848,0.0,0.0
-0.1453,0.215,0.7243,0.0,0.0
-0.7497,0.205,0.7387,0.0,0.0
-0.3803,0.005,0.7394,0.0,0.0
-0.3741,0.0183,0.1891,0.7902388369678088,0.040467960648763616
0.3047,0.0828,-0.5516,0.0,0.0
-0.0927,0.005,-0.0395,0.0,0.0
0.27,0.0585,-0.5756,0.0,0.0
-0.4062,0.1426,0.2356,0.0,0.0
0.2787,0.215,0.6929,0.0,0.0
-0.3138,0.215,0.1942,0.0,0.0
0.0004,0.1004,0.2197,0.45586708203530635,0.02334485509173092
-0.3291,-0.205,-0.2181,0.0,0.0
-0.298,0.005,-0.0432,0.0,0.0
0.2068,0.205,0.6841,0.0,0.0
-0.7434,0.205,0.7133,0.0,0.0
-0.2075,-0.005,0.117,0.0,0.0
0.3949,-0.0155,-0.522,1.124956732433368,0.05760879198794647
0.0243,0.215,-0.0558,0.3447559709241953,0.017654879021536826
-0.3601,0.205,0.4055,0.0,0.0
0.2633,0.1274,0.3383,0.0,0.0
0.1906,0.215,0.4908,0.0,0.0
0.1721,0.205,-0.0561,5.672551055728626,0.29049011787645124
0.0411,0.005,0.34,0.4562132225683627,0.023362580873881055
0.0015,0.214,0.3382,0.4562132225683627,0.023362580873881055
-0.3859,0.215,0.396,0.0,0.0
0.1347,-0.005,-0.1968,0.0,0.0
-0.5482,0.005,0.4306,0.0,0.0
0.0486,0.0663,0.1498,0.0,0.0
-0.2913,0.1379,0.7421,0.0,0.0
-0.1599,0.205,0.6576,0.0,0.0
-0.5161,-0.005,0.4483,0.3447559709241953,0.017654879021536826
-0.3389,-0.1853,-0.2486,0.0,0.0
0.1817,-0.205,-0.3853,0.0,0.0
-0.342,-0.005,0.6783,0.0,0.0
0.4993,0.005,-0.1261,0.23260643821391486,0.011911725604892315
0.0775,0.205,-0.3829,0.0,0.0
0.0434,0.205,0.3416,0.5669781931464175,0.02903483116192502
-0.3076,0.215,0.3438,0.0,0.0
0.1574,0.205,-0.0411,3.1246105919003115,0.16001063546929006
-0.775,0.215,0.6753,0.0,0.0
-0.0479,-0.1861,-0.6704,0.0,0.0
-0.5314,0.205,0.357,0.4555209415022499,0.023327129309580783
0.4893,-0.205,-0.2197,0.0,0.0
-0.3385,0.005,0.5119,0.0,0.0
-0.2489,-0.005,-0.0526,0.0,0.0
-0.3063,0.205,0.4025,0.0,0.0
0.1311,0.005,0.5964,0.0,0.0
-0.0185,-0.0009,-0.2839,0.0,0.0
-0.1153,0.005,0.6283,0.0,0.0
-0.3892,-0.005,0.5589,0.0,0.0
-0.3448,-0.005,0.4859,0.0,0.0
0.4172,0.1738,-0.3843,0.0,0.0
0.3062,0.041,-0.2234,2.167532017999308,0.11099884782416024
-0.3827,-0.205,0.5008,0.0,0.0
-0.1438,0.005,-0.1405,0.0,0.0
-0.0556,-0.005,0.6641,0.0,0.0
0.0713,-0.205,-0.6852,0.0,0.0
-0.075,0.017,0.3289,0.0,0.0
0.0589,-0.005,0.3734,0.0,0.0
-0.2182,0.005,0.4286,0.0,0.0
0.0108,0.215,-0.3563,0.0,0.0
0.312,0.0708,0.4701,0.34164070612668745,0.017495346982185588
0.4962,-0.1726,0.0713,0.0,0.0
-0.1603,0.1005,-0.1208,0.0,0.0
-0.0243,0.005,-0.3904,0.0,0.0
0.7274,-0.0258,-0.2599,0.0,0.0
-0.6206,0.005,0.553,0.0,0.0
0.0621,0.005,0.4408,0.0,0.0
-0.2036,0.005,0.6414,0.0,0.0
-0.7661,0.005,0.4737,0.0,0.0
-0.0821,0.005,0.6128,0.0,0.0
0.3989,0.0815,-0.519,1.3589477327795085,0.06959142072143933
0.2509,-0.205,-0.2633,0.0,0.0
-0.0693,-0.1322,-0.6394,0.0,0.0
0.0877,-0.1219,0.6089,0.0,0.0
0.4594,-0.0058,0.046,0.0,0.0
-0.477,-0.0633,0.5452,0.0,0.0
0.1062,0.205,-0.0694,2.6237452405676702,0.13436142869804127
0.0119,-0.205,-0.5325,0.0,0.0
0.0269,0.215,0.6792,0.0,0.0
0.0522,0.005,0.6247,0.0,0.0
-0.1385,0.005,-0.0945,0.0,0.0
0.2056,0.1912,0.3383,0.0,0.0
-0.0397,0.215,0.038,0.33714087919695396,0.0172649118142338
0.1541,0.215,-0.1564,0.343717549325026,0.017601701675086415
-0.027,0.005,0.3995,0.0,0.0
-0.0273,0.215,0.6615,0.0,0.0
-0.207,-0.205,0.4678,0.0,0.0
0.0229,0.005,0.3852,0.0,0.0
0.1396,0.0874,0.0179,0.0,0.0
-0.3007,-0.205,0.1289,0.0,0.0
-0.0978,0.205,0.0514,0.0,0.0
-0.0183,0.205,0.6084,0.0,0.0
0.2772,0.205,0.4851,0.0,0.0
0.2636,0.205,-0.4555,0.0,0.0
0.079,-0.205,0.2495,0.4562132225683627,0.023362580873881055
-0.3214,0.205,0.5272,0.0,0.0
-0.777,0.1237,0.3381,0.0,0.0
0.0877,-0.1981,0.3296,0.0,0.0
0.086,0.211,-0.4777,0.0,0.0
0.0423,-0.005,-0.1384,0.0,0.0
0.2345,0.005,-0.2893,0.0,0.0
0.2147,0.0294,-0.6137,0.0,0.0
0.2046,0.0735,0.3383,0.0,0.0
-0.4771,-0.0776,0.6916,0.0,0.0
-0.7662,0.005,0.6164,0.0,0.0
0.1385,0.215,-0.2422,0.0,0.0
0.3501,0.2121,-0.2871,0.0,0.0
0.0931,0.1825,0.7422,0.4555209415022499,0.023327129309580783
-0.1075,0.0579,-0.1972,0.0,0.0
0.5642,0.005,-0.3502,0.0,0.0
0.1101,0.205,0.3439,0.9491173416407062,0.04860409465567668
0.4509,0.1072,-0.4507,1.1356870889581168,0.05815829123460071
-0.3262,0.005,-0.0607,0.0,0.0
0.239,0.215,0.3451,0.0,0.0
0.2171,0.215,-0.3886,0.0,0.0
-0.409,0.205,0.7044,0.0,0.0
-0.2768,0.205,0.4849,0.3447559709241953,0.017654879021536826
-0.2208,0.205,0.6751,0.0,0.0
-0.1763,0.1474,0.7421,0.0,0.0
-0.4945,0.1828,0.3382,0.0,0.0
-0.0207,0.1525,0.2502,0.0,0.0
0.0515,-0.005,0.3903,0.0,0.0
-0.0326,-0.0994,-0.6925,0.0,0.0
-0.2168,0.2032,0.7421,0.0,0.0
-0.4994,0.005,0.402,0.5773624091381102,0.029566604626429144
0.269,0.005,-0.0857,0.446521287642783,0.022866258973677212
0.0826,-0.005,-0.6399,0.22291450328833506,0.011415403704688468
0.6291,0.005,0.0259,0.0,0.0
-0.1208,-0.205,0.4397,0.3447559709241953,0.017654879021536826
0.3132,0.005,-0.2403,0.5635167878158532,0.02885757334042364
-0.2958,0.205,0.253,3.9927310488058154,0.2044668971018346
0.3788,-0.005,-0.1794,0.22360678435444792,0.011450855268988744
0.0878,-0.1498,0.0994,0.0,0.0
0.0012,-0.205,0.6588,0.0,0.0
-0.3918,-0.205,0.0427,0.0,0.0
-0.4308,0.0029,0.7421,0.0,0.0
0.2104,0.1826,-0.6492,0.0,0.0
-0.7112,0.205,0.4776,0.3402561439944618,0.01742444385358504
0.1073,-0.1257,0.0648,1.0231914157147801,0.05239741203580607
-0.479,-0.005,0.6127,0.0,0.0
-0.5837,-0.005,0.5945,0.0,0.0
-0.0604,-0.005,0.6543,0.0,0.0
0.2577,0.215,-0.4434,0.0,0.0
0.1385,0.205,-0.1669,0.566632052613361,0.02901710537977488
-0.4785,0.005,0.6765,0.0,0.0
-0.2264,0.009,-0.0249,0.0,0.0
-0.477,-0.1822,0.1842,0.5673243336794738,0.029052556944075148
0.1563,0.205,0.5445,0.0,0.0
-0.292,0.205,0.0816,0.0,0.0
-0.3599,0.1745,0.7421,0.4548286604361371,0.02329167774528051
-0.1242,-0.1755,-0.5599,0.0,0.0
-0.0389,0.005,-0.4957,0.0,0.0
0.0453,-0.005,0.3679,0.0,0.0
0.0799,0.205,0.5877,0.34510211145725167,0.017672604803686962
0.312,0.1345,0.4893,0.0,0.0
-0.1861,0.005,-0.1849,0.7992384908272759,0.040928830984667194
-0.5553,0.1524,0.7421,0.0,0.0
0.088,0.0436,0.0928,2.0449982692973347,0.1047239209430116
0.3252,0.205,-0.4015,0.0,0.0
-0.1602,0.005,-0.484,0.0,0.0
-0.5084,0.215,0.3766,0.9120803046036691,0.04670743596561198
0.4832,0.005,-0.1263,0.45586708203530635,0.02334485509173092
-0.1854,-0.0963,-0.4711,0.0,0.0
-0.0153,-0.005,-0.6414,0.0,0.0
-0.1571,0.205,0.4193,0.45586708203530635,0.02334485509173092
0.2783,0.0805,-0.183,0.45863620629975765,0.023486661348932018
-0.0627,0.0832,-0.2622,0.0,0.0
-0.5724,0.205,0.4849,0.0,0.0
0.2153,0.205,-0.4496,0.0,0.0
-0.1615,-0.1693,-0.5058,0.0,0.0
-0.1212,0.005,-0.5063,0.0,0.0
0.1834,-0.005,-0.5915,0.0,0.0
0.0659,0.126,-0.4485,0.0,0.0
0.1124,0.0216,-0.5159,0.0,0.0
-0.0124,0.215,-0.2107,0.0,0.0
0.4471,-0.205,-0.4242,0.0,0.0
-0.3484,0.005,0.4758,0.0,0.0
-0.4355,-0.1702,-0.1087,0.0,0.0
0.384,-0.205,-0.2928,0.0,0.0
-0.0411,0.005,-0.3421,0.0,0.0
0.4443,0.005,-0.3195,0.0,0.0
0.0028,0.005,0.0379,0.0,0.0
0.1039,0.005,0.6549,0.0,0.0
-0.7751,0.1598,0.7421,0.0,0.0
-0.731,0.072,0.7421,0.0,0.0
0.0651,0.005,-0.6886,0.0,0.0
0.0771,-0.005,0.0796,1.7005884389061958,0.0870867677036249
-0.5014,0.005,0.4997,0.9110418830045,0.04665425861916157
-0.4439,0.215,0.6911,0.0,0.0
-0.6463,0.005,0.361,0.0,0.0
-0.1553,0.005,0.671,0.0,0.0
0.0725,0.005,-0.6811,0.0,0.0
-0.0738,-0.005,0.1163,0.0,0.0
-0.5311,0.0608,0.3382,0.5676704742125304,0.029070282726225295
-0.5456,0.186,0.3382,0.45413637937002427,0.023256226180980236
0.3421,-0.005,-0.345,0.0,0.0
0.2676,0.005,0.6603,0.0,0.0
-0.0023,0.215,0.4242,0.0,0.0
-0.0515,0.005,0.594,0.0,0.0
-0.4599,-0.205,0.6406,0.0,0.0
0.059,0.205,-0.1841,0.5669781931464175,0.02903483116192502
0.0845,-0.005,-0.2448,0.0,0.0
-0.3961,0.205,0.4897,0.0,0.0
-0.4305,-0.005,0.193,0.0,0.0
-0.477,-0.0575,-0.0094,0.4562132225683628,0.02336258087388106
-0.0775,0.005,-0.0341,0.0,0.0
-0.0661,0.205,0.5503,0.0,0.0
-0.2091,-0.205,0.5218,0.0,0.0
-0.0379,-0.005,-0.0575,0.0,0.0
0.0837,0.205,0.631,0.0,0.0
0.4834,-0.1584,-0.4282,0.22256836275527864,0.01139767792253833
-0.3809,-0.036,-0.1879,0.0,0.0
0.0995,0.005,0.4843,0.45690550363447563,0.023398032438181334
-0.4771,-0.0478,0.7138,0.0,0.0
-0.0869,-0.205,0.3199,0.5669781931464175,0.02903483116192502
-0.0419,-0.205,-0.2924,0.0,0.0
-0.0284,-0.205,-0.1207,0.4551748009691935,0.023309403527430644
0.2006,0.005,0.6705,3.5368639667705084,0.18112204201010365
-0.238,-0.005,0.3848,0.0,0.0
0.0184,0.005,0.5221,0.0,0.0
-0.477,-0.1383,0.0516,0.0,0.0
-0.0642,0.215,-0.11,0.0,0.0
-0.573,0.005,0.3647,0.0,0.0
-0.4296,0.005,0.1107,0.0,0.0
-0.0246,0.205,-0.1557,0.0,0.0
-0.1354,-0.005,0.4195,0.0,0.0
0.0216,-0.005,-0.5391,0.0,0.0
-0.7666,0.005,0.4004,0.0,0.0
0.6459,-0.1673,-0.0929,0.0,0.0
-0.6068,0.205,0.3421,0.0,0.0
0.1968,0.205,0.4143,0.0,0.0
0.3403,0.2081,0.4836,0.0,0.0
-0.3883,0.1705,0.7421,0.6877812391831084,0.03522112913232296
0.3107,0.205,0.5016,0.0,0.0
-0.647,0.1822,0.3381,0.0,0.0
0.4502,-0.205,-0.389,1.3686396677050883,0.07008774262164318
-0.3764,-0.205,0.1128,0.0,0.0
-0.1653,-0.205,-0.2499,0.0,0.0
0.31,0.0808,-0.2289,1.4783662166839737,0.07570681556323672
0.2451,0.205,-0.1545,0.5673243336794738,0.029052556944075148
0.2401,-0.205,-0.3063,0.0,0.0
-0.1737,-0.005,0.3442,0.0,0.0
0.095,0.1135,0.7422,0.0,0.0
0.1967,0.005,0.6445,0.9134648667358949,0.04677833909421253
-0.4104,0.005,0.717,0.0,0.0
-0.2071,-0.005,0.4475,0.0,0.0
0.2023,0.005,0.5242,0.0,0.0
0.1273,0.005,-0.591,0.22291450328833506,0.011415403704688468
-0.215,0.005,0.2719,0.0,0.0
0.0878,-0.0398,0.2752,1.7109726548978885,0.08761854116812903
-0.089,0.005,0.6746,0.0,0.0
-0.4529,0.0523,0.7421,0.0,0.0
-0.4009,-0.005,0.4919,0.0,0.0
-0.0516,0.005,0.4776,0.0,0.0
-0.0506,-0.005,0.048,0.0,0.0
-0.2785,-0.1605,-0.3363,0.0,0.0
-0.1858,-0.205,0.0372,0.34614053305642095,0.017725782150137374
-0.3425,0.1401,0.1432,0.0,0.0
0.7315,-0.0333,-0.2169,0.0,0.0
-0.4019,0.005,0.4073,0.0,0.0
-0.4804,0.005,0.4231,2.1703011422637593,0.11114065408136134
-0.477,-0.2016,0.1996,0.5673243336794738,0.029052556944075148
-0.1224,0.005,0.6673,0.0,0.0
0.2735,-0.205,-0.1296,0.0,0.0
0.2201,-0.005,-0.2777,0.0,0.0
0.312,0.1002,0.4119,0.0,0.0
-0.221,0.205,0.0131,0.0,0.0
-0.2026,0.205,0.1199,0.0,0.0
-0.188,-0.005,0.616,0.0,0.0
0.1052,0.215,0.7316,0.0,0.0
-0.3255,0.005,0.0705,0.0,0.0
-0.2095,-0.005,0.4001,0.0,0.0
-0.3116,0.005,0.7404,0.45482866043613707,0.023291677745280508
-0.014,-0.205,0.5953,0.0,0.0
0.2451,0.205,0.3537,0.0,0.0
-0.5337,0.205,0.601,0.0,0.0
-0.029,0.005,0.6926,0.0,0.0
-0.2577,-0.0751,-0.3664,0.0,0.0
-0.1329,0.005,0.5113,0.0,0.0
0.0169,0.205,-0.101,0.0,0.0
-0.1484,-0.005,0.7016,0.0,0.0
0.1783,0.005,-0.437,0.0,0.0
-0.6415,0.205,0.4663,0.0,0.0
-0.1713,-0.005,-0.082,0.0,0.0
-0.7592,0.005,0.5313,0.0,0.0
0.0878,-0.0921,0.1552,11.593977154724818,0.5937250731188513
0.1556,-0.1072,-0.0051,0.794392523364486,0.04068067003456527
-0.6294,0.0934,0.7421,2.965732087227414,0.151874501462377
0.0763,-0.205,-0.3961,0.0,0.0
-0.2296,-0.205,0.5635,0.0,0.0
-0.477,-0.1664,0.6371,0.23295257874697128,0.011929451387042453
-0.1483,-0.205,-0.055,0.0,0.0
-0.6362,0.1577,0.7421,0.0,0.0
-0.0561,-0.005,0.5985,0.0,0.0
-0.1883,0.205,0.0618,0.0,0.0
-0.2131,-0.005,0.6778,0.0,0.0
0.0772,0.005,0.0041,0.0,0.0
-0.6577,0.205,0.6231,0.0,0.0
0.3243,-0.1168,-0.0473,3.5053651782623745,0.17950899583444116
-0.2537,-0.005,0.4894,0.0,0.0
-0.35,-0.205,-0.1413,0.3440636898580824,0.017619427457236547
-0.0247,0.005,0.6508,0.0,0.0
0.4866,-0.205,-0.1932,0.0,0.0
0.0347,0.205,-0.0523,0.3447559709241953,0.017654879021536826
0.6104,0.005,-0.0081,0.23364485981308414,0.011964902951342728
-0.5717,0.205,0.4358,0.0,0.0
-0.3405,0.215,0.289,0.45586708203530635,0.02334485509173092
0.0556,-0.1214,0.7422,0.0,0.0
0.2478,0.205,-0.5834,0.22256836275527864,0.01139767792253833
-0.1752,-0.005,0.5095,0.0,0.0
0.0817,-0.005,0.408,0.9100034614053306,0.046601081272711155
-0.5466,-0.005,0.6816,0.0,0.0
-0.6015,-0.005,0.4145,0.0,0.0
-0.1621,0.005,-0.0391,0.0,0.0
-0.0629,0.205,0.0834,0.0,0.0
-0.5163,0.1268,0.3382,0.0,0.0
0.1134,0.215,-0.4509,0.0,0.0
0.2494,0.205,0.6273,0.0,0.0
0.1281,0.005,0.4281,0.45586708203530635,0.02334485509173092
-0.7057,0.215,0.4208,0.0,0.0
0.0877,-0.1142,0.3946,0.0,0.0
-0.3231,0.205,0.464,0.0,0.0
0.0341,0.005,-0.1231,0.0,0.0
-0.0677,-0.1215,-0.6417,0.0,0.0
-0.0748,-0.005,-0.4387,0.0,0.0
-0.457,-0.005,0.6629,0.0,0.0
0.0812,0.005,0.5078,2.1658013153340256,0.11091021891340955
-0.2963,0.215,0.1227,0.5683627552786432,0.02910573429052557
-0.0136,0.215,0.2006,0.9141571478020076,0.0468137906585128
-0.5761,0.005,0.3388,0.0,0.0
0.2301,-0.205,-0.1366,0.0,0.0
-0.335,0.005,0.7038,0.0,0.0
0.3188,0.0328,-0.2417,2.7120110764970575,0.1388815031463263
-0.0938,0.005,0.5839,0.0,0.0
0.0291,0.205,0.4907,0.3561786085150571,0.018239829832491356
-0.0458,-0.005,0.3801,0.0,0.0
-0.3996,0.005,0.3645,0.0,0.0
-0.005,0.215,0.4091,0.0,0.0
0.3267,0.005,-0.3635,0.0,0.0
-0.2999,0.005,0.6675,0.0,0.0
-0.1154,-0.205,0.587,0.0,0.0
0.0248,0.005,0.194,0.0,0.0
-0.0767,-0.005,-0.2248,0.0,0.0
0.1021,0.2025,0.7422,0.0,0.0
-0.2317,0.215,0.0611,0.0,0.0
0.0223,0.205,0.4665,0.3561786085150571,0.018239829832491356
-0.3526,-0.005,0.7411,0.0,0.0
0.312,0.067,0.4161,1.0231914157147803,0.05239741203580608
-0.6835,0.005,0.5894,0.0,0.0
-0.1068,-0.205,-0.209,0.0,0.0
0.375,-0.205,-0.4107,0.0,0.0
0.3127,0.005,-0.5282,0.6701280719972309,0.03431711424266595
-0.465,0.215,0.4345,0.0,0.0
-0.2697,0.1027,0.0378,2.958463136033229,0.1515022600372241
0.0217,0.005,0.3,0.0,0.0
0.0008,0.005,-0.1754,0.0,0.0
0.033,0.0326,-0.4008,0.9106957424714435,0.04663653283701143
0.123,0.005,-0.3314,0.0,0.0
0.2283,-0.1298,-0.1106,0.0,0.0
-0.086,0.005,-0.0233,0.0,0.0
-0.1956,0.205,0.1976,0.0,0.0
-0.3811,0.005,0.3065,0.0,0.0
-0.2212,-0.005,0.4352,0.0,0.0
0.0838,0.215,0.5213,0.0,0.0
-0.2268,-0.005,0.3014,0.0,0.0
0.0789,0.215,0.5341,0.0,0.0
-0.1593,-0.1098,-0.5089,0.0,0.0
0.4062,-0.1665,-0.4816,0.0,0.0
-0.0696,0.205,0.7428,0.0,0.0
-0.1542,0.005,0.7272,0.45482866043613707,0.023291677745280508
0.6123,-0.1112,-0.0442,0.0,0.0
0.3054,-0.005,0.5623,2.964693665628245,0.15182132411592658
-0.4026,0.205,0.2477,0.0,0.0
0.0305,0.215,-0.0259,1.6123226029768087,0.08256669325533988
0.142,0.205,0.6554,0.0,0.0
-0.3262,0.005,0.4001,0.0,0.0
-0.3395,-0.205,-0.0359,0.3440636898580824,0.017619427457236547
0.155,0.005,0.7271,0.7881619937694704,0.040361605955862793
-0.3283,-0.205,-0.0816,0.0,0.0
-0.0384,0.005,0.6411,0.0,0.0
0.1811,0.1925,0.3383,0.9131187262028384,0.04676061331206239
-0.0436,0.205,-0.2173,0.0,0.0
-0.074,0.205,0.0368,0.0,0.0
0.2049,-0.005,-0.1156,0.0,0.0
0.4192,-0.0501,0.0182,1.0235375562478368,0.05241513781795622
0.0707,0.205,0.3453,0.0,0.0
-0.1957,0.1603,-0.0695,1.0214607130494981,0.05230878312505539
0.0889,-0.005,0.6525,0.22291450328833506,0.011415403704688468
-0.1448,0.205,0.3193,0.0,0.0
-0.4898,0.005,0.6539,0.0,0.0
-0.2357,0.005,0.6466,0.0,0.0
-0.3963,0.005,0.0357,0.0,0.0
0.6182,-0.005,0.0176,0.23364485981308414,0.011964902951342728
0.0878,0.0035,0.1824,0.0,0.0
-0.2539,0.215,0.5431,0.0,0.0
-0.4747,0.215,0.7016,0.0,0.0
-0.4465,-0.205,0.4147,0.0,0.0
0.2384,-0.0847,-0.1066,1.264797507788162,0.06477000797660196
0.3953,-0.1264,0.0222,0.0,0.0
0.3493,0.215,-0.3466,0.0,0.0
-0.779,0.0034,0.4238,0.0,0.0
0.2079,-0.005,0.7134,0.0,0.0
-0.1329,0.005,0.5401,0.0,0.0
0.1844,0.205,-0.3614,0.0,0.0
-0.3793,-0.205,-0.1449,0.3440636898580824,0.017619427457236547
-0.2803,0.005,0.2604,0.0,0.0
0.2412,-0.0602,-0.5954,0.0,0.0
-0.3623,0.005,0.3246,0.0,0.0
-0.1922,0.005,0.5678,0.0,0.0
0.1188,0.005,-0.5078,0.0,0.0
0.1367,0.005,-0.3847,0.0,0.0
0.3551,0.205,-0.5075,0.0,0.0
-0.779,0.061,0.5727,0.0,0.0
-0.0916,0.005,-0.1008,0.0,0.0
0.3373,0.205,-0.3076,0.0,0.0
-0.1546,0.205,-0.0423,0.0,0.0
-0.3585,0.1648,0.7421,1.0211145725164419,0.05229105734290526
0.0449,0.005,-0.1884,0.0,0.0
0.3293,-0.1606,-0.5347,0.0,0.0
0.1082,0.012,0.7422,0.4555209415022499,0.023327129309580783
-0.1467,0.205,0.1983,0.0,0.0
0.4008,0.1865,-0.4853,0.0,0.0
-0.2801,-0.205,-0.1716,0.0,0.0
0.312,0.2007,0.3527,0.0,0.0
-0.0809,0.005,0.7211,0.0,0.0
-0.4972,0.005,0.631,0.0,0.0
-0.524,0.005,0.5851,0.0,0.0
-0.0955,0.215,0.4863,0.0,0.0
0.048,-0.205,0.0388,0.5777085496711665,0.029584330408579274
-0.0679,-0.0575,-0.6414,0.0,0.0
0.2671,-0.005,0.3488,0.34510211145725167,0.017672604803686962
-0.1676,-0.005,0.1308,0.0,0.0
-0.0904,0.205,0.7327,0.0,0.0
0.0007,-0.205,0.2667,0.0,0.0
0.3154,0.205,-0.3171,0.0,0.0
-0.2202,0.1155,-0.0339,0.0,0.0
-0.1993,0.205,0.0069,0.0,0.0
0.115,0.005,-0.1708,0.0,0.0
0.7024,-0.1762,-0.2771,0.0,0.0
-0.271,0.005,0.6635,0.0,0.0
0.0176,-0.205,-0.0839,0.34440983039113876,0.017637153239386683
-0.5724,0.2022,0.3382,0.0,0.0
0.0664,-0.205,-0.4034,0.0,0.0
-0.2977,0.005,0.6041,0.0,0.0
0.6591,-0.075,-0.1121,0.0,0.0
-0.0783,-0.005,-0.5516,0.3440636898580824,0.017619427457236547
-0.4056,-0.205,0.419,0.4562132225683627,0.023362580873881055
-0.0003,-0.205,-0.144,0.0,0.0
-0.2374,0.215,0.1856,0.34544825199030804,0.017690330585837098
-0.0366,0.215,0.4377,0.0,0.0
-0.3088,-0.205,0.0557,0.0,0.0
0.0769,0.205,-0.1326,0.0,0.0
0.2841,0.1571,0.3383,0.0,0.0
-0.5657,0.205,0.6356,0.0,0.0
0.0021,0.215,0.0082,2.994461751471097,0.1533457413808384
-0.6584,0.215,0.7019,0.0,0.0
0.0164,-0.005,-0.3889,0.0,0.0
-0.0618,0.005,-0.3233,0.0,0.0
-0.1294,0.005,0.3007,0.0,0.0
-0.2604,0.005,0.4222,0.0,0.0
-0.1184,-0.005,0.2776,0.0,0.0
0.2286,-0.005,-0.5602,0.0,0.0
0.199,-0.1007,-0.068,2.7144340602284522,0.13900558362137724
0.088,0.005,-0.3151,0.0,0.0
0.4638,0.005,-0.0589,0.0,0.0
-0.01,0.205,0.5579,0.0,0.0
0.2288,0.066,0.3383,0.0,0.0
0.2651,0.215,-0.5091,0.0,0.0
0.4974,0.005,-0.3111,0.0,0.0
-0.0793,-0.005,-0.3457,0.0,0.0
0.0362,0.215,0.4218,0.0,0.0
-0.0828,0.005,0.3166,0.0,0.0
0.3828,0.205,-0.4718,0.7999307718933888,0.04096428254896747
-0.0124,0.205,-0.1173,0.0,0.0
-0.4661,0.005,0.6291,0.0,0.0
-0.128,-0.205,0.543,0.0,0.0
-0.0693,-0.205,0.148,1.4887504326756664,0.07623858902774085
0.2953,0.005,-0.4567,0.0,0.0
-0.3756,0.005,0.5467,0.0,0.0
-0.3493,0.005,0.4934,0.0,0.0
0.2366,0.205,0.5639,0.0,0.0
-0.7457,0.215,0.7053,0.0,0.0
0.1938,0.005,0.5733,0.0,0.0
-0.3875,0.205,0.5759,0.0,0.0
0.1143,-0.1076,0.0547,1.3672551055728626,0.07001683949304262
-0.4658,-0.1527,-0.0648,0.0,0.0
0.3119,0.0524,0.6164,1.3689858082381448,0.07010546840379331
-0.0543,0.215,0.3624,0.0,0.0
0.2664,0.0662,-0.5781,0.0,0.0
-0.5018,0.205,0.3519,0.0,0.0
0.0432,0.215,0.426,0.0,0.0
-0.1009,0.215,-0.1694,0.0,0.0
0.1597,-0.0663,-0.0111,3.525787469712704,0.1805548169812993
-0.322,0.005,0.4617,0.0,0.0
0.0473,-0.205,-0.3084,0.0,0.0
-0.2801,0.1691,0.7421,0.0,0.0
-0.2161,0.005,-0.0888,0.0,0.0
-0.3588,0.215,0.7308,0.0,0.0
-0.501,-0.005,0.6869,0.0,0.0
-0.2462,-0.005,0.7388,0.0,0.0
0.1271,0.005,0.7304,0.0,0.0
-0.1824,0.005,0.5696,0.0,0.0
-0.6677,0.205,0.4869,0.22637590861889928,0.011592661526189842
-0.0124,-0.005,0.4385,0.0,0.0
-0.0081,0.005,0.3911,0.0,0.0
-0.6913,0.005,0.7308,0.0,0.0
-0.1595,-0.005,0.6875,0.0,0.0
-0.0998,0.005,-0.515,0.2232606438213915,0.011433129486838606
-0.3811,0.005,0.5314,0.0,0.0
0.6208,0.005,-0.0164,0.23364485981308414,0.011964902951342728
0.3119,0.1848,0.5523,0.0,0.0
0.1755,-0.005,-0.2095,0.0,0.0
-0.3302,-0.005,-0.0696,0.0,0.0
0.0808,0.005,0.6098,1.701280719972309,0.0871222192679252
0.2949,0.205,0.6767,0.0,0.0
-0.2184,0.005,0.2294,0.0,0.0
-0.353,0.205,0.2471,0.3007961232260298,0.015403704688469378
0.1877,-0.154,-0.0517,0.0,0.0
0.0873,-0.1921,-0.7016,0.0,0.0
-0.0626,0.005,0.6279,0.0,0.0
0.2869,0.2027,-0.1955,0.22291450328833506,0.011415403704688468
0.3119,0.1835,0.5256,0.0,0.0
0.0204,0.0817,0.1907,0.0,0.0
-0.1898,0.0718,0.7421,0.800276912426445,0.0409820083311176
0.0877,-0.1388,0.3791,0.0,0.0
-0.5169,0.215,0.7107,0.0,0.0
0.3569,-0.205,-0.4213,0.0,0.0
-0.1494,0.005,0.4585,0.0,0.0
-0.6775,0.205,0.699,0.0,0.0
-0.3971,-0.205,0.4723,1.8245067497403946,0.09343259771337409
0.5445,-0.005,-0.2816,0.0,0.0
0.0365,0.215,0.7051,0.0,0.0
-0.2032,0.046,-0.0586,0.0,0.0
0.3379,-0.205,-0.2055,0.0,0.0
-0.3897,0.0697,0.2117,0.0,0.0
-0.1354,-0.005,-0.2731,0.0,0.0
0.506,-0.005,-0.2021,0.0,0.0
-0.0479,0.205,-0.1952,0.0,0.0
-0.125,0.205,-0.1294,0.0,0.0
0.4422,0.1447,-0.4567,0.0,0.0
-0.5535,0.041,0.7421,0.0,0.0
-0.1443,-0.205,-0.3963,0.0,0.0
-0.6773,0.1802,0.3381,0.0,0.0
0.0086,-0.005,-0.5823,0.0,0.0
-0.1125,0.1758,-0.1899,0.0,0.0
0.2163,-0.0975,-0.6126,0.0,0.0
0.1751,0.005,0.4606,0.5662859120803047,0.028999379597624744
-0.0262,0.1385,-0.315,0.0,0.0
0.1714,0.005,0.4333,0.22845275181723781,0.011699016219090667
0.0931,-0.1848,0.0853,0.0,0.0
0.169,-0.005,-0.6417,1.8234683281412254,0.09337942036692368
-0.3912,0.205,0.6773,0.0,0.0
0.0019,0.0452,-0.3558,2.3793700242298375,0.12184702650004431
-0.3237,0.205,0.2961,0.0,0.0
0.4117,0.205,-0.4669,0.0,0.0
0.094,0.215,0.7161,0.0,0.0
-0.0403,-0.0804,-0.6813,0.0,0.0
-0.21,-0.005,-0.3372,0.0,0.0
0.0742,0.005,0.7119,0.44582900657667013,0.022830807409376937
-0.0217,-0.205,0.3482,2.157147802007615,0.11046707435965611
0.5436,0.005,-0.2678,0.0,0.0
-0.2518,-0.184,0.7421,4.748355832467983,0.2431622795355845
-0.0745,0.005,-0.1067,0.0,0.0
-0.4278,0.205,0.7046,0.0,0.0
0.6319,-0.1907,-0.3258,0.0,0.0
0.2659,-0.005,0.3518,0.34510211145725167,0.017672604803686962
0.1295,0.215,0.6779,0.0,0.0
-0.1204,-0.205,-0.5653,0.0,0.0
-0.3112,-0.205,0.4516,0.0,0.0
0.2242,0.205,-0.6677,0.6777431637244722,0.03470708144996898
0.2285,0.005,-0.4627,0.0,0.0
-0.0181,-0.0479,0.7422,2.599515403253721,0.13312062394753166
0.2759,0.0361,-0.1795,1.81239183108342,0.09281219533811928
-0.477,-0.1273,0.1634,0.0,0.0
-0.4579,-0.0254,-0.0762,0.0,0.0
-0.2095,0.005,-0.2582,0.0,0.0
-0.4449,-0.005,0.5475,0.0,0.0
-0.0551,0.215,0.6225,0.0,0.0
-0.3753,-0.0443,-0.1959,0.0,0.0
-0.0421,0.073,-0.292,0.0,0.0
-0.4531,-0.005,0.4491,0.0,0.0
-0.779,0.0387,0.3885,0.0,0.0
-0.0203,0.005,-0.0799,0.0,0.0
-0.0532,0.005,-0.1995,0.0,0.0
0.5332,-0.005,-0.1065,0.0,0.0
-0.7688,0.005,0.6127,0.0,0.0
-0.4142,0.1615,0.7421,0.23295257874697128,0.011929451387042453
-0.4532,-0.205,0.6327,0.0,0.0
-0.2005,0.005,0.184,0.0,0.0
-0.0483,0.005,0.5673,0.0,0.0
-0.2259,-0.187,0.7421,0.6794738663897543,0.03479571036071966
-0.2856,0.005,0.3315,0.0,0.0
-0.1494,0.205,0.6348,0.3447559709241953,0.017654879021536826
0.0636,0.005,0.7242,0.4586362062997577,0.023486661348932018
0.1376,-0.005,-0.5361,0.0,0.0
-0.5809,-0.005,0.4196,0.0,0.0
0.0534,0.005,-0.5948,0.0,0.0
-0.0884,-0.005,-0.4714,0.0,0.0
-0.3038,0.205,0.4741,0.0,0.0
0.0586,0.215,-0.2183,0.3440636898580824,0.017619427457236547
-0.4329,0.005,0.205,0.0,0.0
-0.388,-0.205,0.5114,0.0,0.0
0.0796,0.005,0.7366,0.23572170301142265,0.012071257644243551
-0.3593,-0.205,0.092,0.0,0.0
-0.4004,-0.1325,0.7421,0.0,0.0
0.0082,0.005,0.5223,0.0,0.0
-0.3313,-0.005,0.3725,0.0,0.0
-0.4152,-0.005,0.7218,0.0,0.0
-0.3012,0.1828,0.7421,0.0,0.0
-0.477,-0.1158,0.5307,0.0,0.0
-0.4352,0.205,0.5718,0.0,0.0
0.246,0.005,-0.209,0.0,0.0
-0.207,0.005,-0.3627,0.0,0.0
-0.1823,0.205,0.5439,0.0,0.0
0.0356,0.205,-0.4007,0.0,0.0
-0.1883,0.215,0.3576,0.0,0.0
-0.3163,0.005,0.6186,0.0,0.0
-0.374,0.205,0.4798,0.0,0.0
0.0286,0.0221,0.1788,0.0,0.0
0.4525,-0.205,-0.1903,0.0,0.0
0.0519,0.205,0.0736,0.23295257874697128,0.011929451387042453
0.6276,-0.005,-0.1669,0.2232606438213915,0.011433129486838606
-0.4237,0.005,0.1153,0.0,0.0
-0.7198,0.005,0.3813,0.0,0.0
0.2217,0.215,-0.4462,0.0,0.0
-0.0506,0.215,-0.1851,0.0,0.0
-0.4815,0.0602,0.7421,0.0,0.0
-0.1374,0.005,0.5808,0.0,0.0
-0.0751,-0.005,-0.2536,0.0,0.0
-0.0017,0.205,0.7271,0.0,0.0
0.3562,0.005,-0.4379,0.0,0.0
-0.5911,0.005,0.4275,0.0,0.0
0.4297,-0.0701,-0.4918,0.8013153340256144,0.04103518567756802
-0.1915,0.205,0.6321,0.0,0.0
0.5122,-0.0423,-0.4084,0.0,0.0
-0.4403,0.0598,0.285,0.4555209415022499,0.023327129309580783
0.1287,0.215,0.516,0.0,0.0
-0.0735,0.0822,0.7422,0.34267912772585674,0.017548524328636
-0.0957,-0.205,-0.0128,0.0,0.0
0.1301,0.005,-0.2685,0.0,0.0
-0.3129,-0.005,-0.1031,0.0,0.0
-0.0284,-0.205,-0.2692,0.0,0.0
0.1424,0.1951,-0.5594,0.0,0.0
0.1491,0.1153,0.3383,0.0,0.0
-0.779,0.017,0.3566,0.0,0.0
0.0877,-0.1156,0.5629,0.0,0.0
0.1463,0.005,0.405,0.0,0.0
-0.091,0.005,0.7156,0.0,0.0
-0.7861,0.205,0.6311,0.0,0.0
0.35,-0.005,-0.1037,0.0,0.0
-0.2124,-0.205,-0.0778,0.0,0.0
0.3118,0.005,0.6903,0.22949117341640707,0.011752193565541079
0.0806,0.005,0.4832,0.45690550363447563,0.023398032438181334
0.2703,0.215,-0.3046,0.0,0.0
0.0252,0.205,0.4748,0.3561786085150571,0.018239829832491356
0.8005,0.005,-0.171,0.22291450328833506,0.011415403704688468
-0.0208,0.205,-0.162,0.0,0.0
-0.7917,0.205,0.5813,0.0,0.0
0.5165,-0.0699,0.0853,1.2440290758047765,0.0637064610475937
-0.3809,-0.005,0.4429,0.0,0.0
0.3923,0.205,-0.3567,0.0,0.0
-0.1526,0.205,0.3411,0.0,0.0
0.3119,0.1654,0.6597,0.0,0.0
0.1202,-0.205,0.0179,2.7251644167532016,0.13955508286803153
-0.345,0.205,0.7086,0.0,0.0
-0.2,-0.005,-0.326,0.0,0.0
0.4607,0.005,-0.1158,0.45586708203530635,0.02334485509173092
0.0021,-0.0077,-0.7428,0.0,0.0
-0.5641,0.205,0.4355,0.0,0.0
0.4588,0.1181,-0.4453,0.7912772585669782,0.040521137995214035
-0.5406,0.005,0.4483,0.3447559709241953,0.017654879021536826
-0.1145,0.005,0.5295,0.0,0.0
-0.4018,-0.005,0.5965,0.0,0.0
-0.2624,0.215,0.0601,0.0,0.0
-0.2643,0.005,0.0746,0.0,0.0
-0.1537,-0.0379,0.7421,1.9359640013845625,0.09914029956571835
0.0341,0.005,0.3859,0.0,0.0
-0.24,-0.205,-0.3545,0.0,0.0
-0.2131,-0.205,0.2158,0.0,0.0
-0.251,-0.005,0.6423,0.0,0.0
0.0077,0.005,0.0131,0.0,0.0
0.3371,0.0969,-0.5293,0.4562132225683627,0.023362580873881055
0.0314,-0.205,-0.4459,0.0,0.0
-0.0906,0.005,0.6054,0.0,0.0
-0.1728,0.005,0.6161,0.0,0.0
0.2702,0.0191,-0.5754,0.22222222222222224,0.011379952140388195
-0.1445,0.215,0.2662,0.0,0.0
-0.0206,0.205,0.5052,0.0,0.0
-0.4569,-0.1863,-0.0778,0.0,0.0
-0.2816,0.205,0.2283,0.3447559709241953,0.017654879021536826
-0.3835,0.005,0.5513,0.0,0.0
0.3001,-0.005,-0.377,0.0,0.0
0.0954,-0.1747,-0.696,0.0,0.0
-0.026,-0.0767,-0.7021,0.0,0.0
-0.3089,0.1568,0.0946,0.0,0.0
0.5693,-0.186,0.0181,0.0,0.0
0.4397,0.005,-0.0376,0.0,0.0
0.1419,0.215,0.4748,0.0,0.0
-0.437,-0.205,-0.0605,0.0,0.0
-0.1029,0.2134,-0.204,0.0,0.0
0.2955,0.205,-0.4117,0.0,0.0
-0.5971,0.005,0.4668,0.0,0.0
-0.0188,-0.005,-0.4241,0.0,0.0
-0.4395,0.005,0.2662,0.22291450328833506,0.011415403704688468
0.2519,0.205,0.5726,0.0,0.0
-0.5288,0.005,0.4257,0.689858082381447,0.03532748382522379
-0.383,-0.005,0.4143,0.0,0.0
-0.4732,-0.005,0.6101,0.0,0.0
-0.0732,0.0132,0.3263,0.0,0.0
-0.2193,0.205,0.4933,0.0,0.0
0.1859,0.1431,-0.0491,0.0,0.0
0.0435,0.005,-0.1726,0.0,0.0
-0.016,0.1304,0.3382,0.0,0.0
0.0709,-0.005,0.6427,0.0,0.0
0.024,0.005,0.4318,0.0,0.0
-0.2138,0.005,0.0806,0.0,0.0
0.3673,0.005,-0.4945,12.879196953963307,0.6595409022423112
-0.4696,-0.205,0.2074,0.0,0.0
-0.4517,0.005,0.6771,0.0,0.0
0.2864,0.215,-0.3224,0.0,0.0
0.0957,-0.205,-0.1728,0.0,0.0
0.7552,0.005,-0.1766,0.0,0.0
-0.2005,0.005,0.5453,0.0,0.0
-0.1555,-0.005,0.1979,0.0,0.0
-0.1524,0.215,0.6531,0.0,0.0
-0.3004,0.005,0.3692,0.0,0.0
0.2427,-0.005,0.5599,0.22291450328833506,0.011415403704688468
-0.0949,0.205,0.1942,0.3447559709241953,0.017654879021536826
-0.0356,0.205,0.1154,0.22914503288335064,0.01173446778339094
-0.477,-0.105,0.1428,0.0,0.0
0.0014,0.1906,-0.3551,0.0,0.0
0.0709,-0.205,-0.4816,0.0,0.0
0.1951,0.005,-0.5884,0.0,0.0
-0.357,-0.205,0.2618,2.5019037729318105,0.12812195338119295
0.312,0.1629,0.4367,0.0,0.0
0.0038,-0.205,0.2186,0.0,0.0
0.1469,0.005,-0.4657,0.0,0.0
0.2783,-0.005,-0.442,0.0,0.0
-0.477,-0.0746,-0.0349,0.0,0.0
0.6228,-0.205,-0.2595,0.0,0.0
-0.2248,-0.005,-0.4023,0.0,0.0
-0.0137,0.089,0.2401,0.6888196607822776,0.03527430647877337
-0.0653,-0.005,-0.3863,0.0,0.0
-0.0959,-0.205,-0.4133,0.23606784354447907,0.012088983426393689
-0.1578,-0.005,-0.2464,0.0,0.0
0.0386,0.215,0.5275,0.0,0.0
-0.3189,-0.1571,-0.2777,0.0,0.0
-0.2427,-0.1727,-0.3881,0.0,0.0
0.0726,0.005,-0.0017,0.0,0.0
0.0163,-0.005,0.7004,0.0,0.0
0.0877,-0.0652,0.5488,0.34337140879196953,0.017583975892936272
-0.2944,0.005,-0.0535,0.0,0.0
0.1447,0.005,-0.0962,0.0,0.0
-0.7932,0.215,0.4228,0.0,0.0
-0.0609,0.1022,0.3382,0.0,0.0
-0.1194,0.205,0.118,4.002769124264452,0.2049809447841886
-0.043,0.005,-0.1769,0.0,0.0
0.3917,0.005,-0.2386,0.0,0.0
0.0356,0.205,0.3893,0.4548286604361371,0.02329167774528051
-0.2813,0.005,0.6848,0.0,0.0
-0.6133,0.005,0.5483,0.566632052613361,0.02901710537977488
0.3168,-0.1057,-0.0525,1.820699203876774,0.09323761410972257
-0.1296,-0.005,0.515,0.0,0.0
-0.3501,0.1718,0.7421,0.22291450328833506,0.011415403704688468
0.2658,0.215,-0.5843,0.23260643821391486,0.011911725604892315
-0.6186,-0.005,0.3562,0.0,0.0
-0.477,-0.1816,0.0965,0.6881273797161648,0.035238854914473094
0.3801,0.005,-0.4175,0.0,0.0
0.3196,-0.0486,-0.5742,0.0,0.0
-0.5923,0.005,0.6377,0.0,0.0
0.1992,0.005,-0.0885,0.0,0.0
0.1172,0.005,-0.3134,0.0,0.0
-0.0807,-0.205,0.5523,0.0,0.0
-0.237,0.005,0.1555,0.0,0.0
-0.2416,-0.205,0.4418,0.566632052613361,0.02901710537977488
-0.68,0.205,0.4097,0.0,0.0
-0.2501,0.005,0.0409,0.0,0.0
0.1779,0.0733,0.7422,0.0,0.0
0.4482,-0.005,-0.032,0.0,0.0
-0.3212,0.205,0.6425,0.0,0.0
0.3558,0.205,-0.4543,1.1464174454828662,0.05870779048125498
0.0201,0.205,0.5813,0.0,0.0
0.1433,-0.005,0.5744,0.4468674281758394,0.022883984755827348
-0.2537,0.205,0.2317,0.0,0.0
-0.4335,0.005,0.6711,0.0,0.0
-0.5013,0.205,0.6493,0.0,0.0
-0.2921,0.215,0.3087,0.0,0.0
-0.1208,0.005,0.3756,0.0,0.0
0.2361,-0.005,0.6625,1.0134994807892004,0.05190109013560223
-0.5639,0.005,0.3647,0.0,0.0
-0.1596,-0.005,0.7095,0.0,0.0
-0.7452,0.205,0.5724,0.0,0.0
0.4738,-0.1696,-0.4349,0.0,0.0
0.312,0.084,0.3454,0.4555209415022499,0.023327129309580783
0.0145,0.215,-0.2799,0.0,0.0
0.087,-0.205,0.0887,0.0,0.0
-0.4434,-0.005,0.3865,0.0,0.0
-0.2304,0.005,0.4657,0.0,0.0
-0.779,0.0504,0.4569,0.0,0.0
-0.779,0.033,0.7077,0.0,0.0
-0.0968,-0.205,0.2276,0.9141571478020077,0.04681379065851281
0.1862,0.205,-0.0841,3.6251298026998966,0.1856421164583887
-0.4031,0.005,0.3482,0.0,0.0
-0.0718,0.205,0.675,0.0,0.0
0.2882,0.0797,-0.6005,0.0,0.0
-0.0773,-0.1293,0.7422,0.0,0.0
0.0656,0.205,-0.2648,0.0,0.0
0.328,-0.205,-0.4355,0.0,0.0
0.1278,-0.005,-0.4745,0.0,0.0
-0.7532,0.2104,0.3381,0.0,0.0
0.2589,0.0359,-0.1549,2.6005538248528905,0.1331738012939821
0.0662,-0.005,-0.3428,0.0,0.0
0.3775,0.005,-0.2303,0.0,0.0
-0.3143,0.0194,0.7421,0.23468328141225336,0.012018080297793138
-0.2193,-0.1403,-0.4221,0.0,0.0
-0.3939,-0.005,0.5035,0.0,0.0
-0.3973,-0.0349,-0.164,0.0,0.0
0.395,0.215,-0.3686,0.0,0.0
0.2322,0.205,-0.5223,0.0,0.0
-0.3806,0.005,0.6698,0.0,0.0
-0.5046,0.005,0.5323,0.0,0.0
0.3111,0.005,-0.2104,0.0,0.0
-0.0664,0.005,0.5554,0.0,0.0
0.4068,-0.205,-0.1066,0.0,0.0
0.2055,0.205,0.7218,0.0,0.0
-0.0941,0.005,0.0207,0.0,0.0
0.579,-0.005,-0.3143,0.0,0.0
0.2836,-0.1013,-0.0754,6.5565939771547255,0.33576176548790215
-0.2468,0.205,0.5634,0.0,0.0
-0.1069,0.005,0.526,0.0,0.0
-0.3861,-0.005,0.0876,0.0,0.0
0.1696,0.205,0.504,0.0,0.0
0.2983,0.205,0.7296,0.0,0.0
-0.0113,-0.205,-0.7003,0.0,0.0
0.3921,0.1963,-0.4913,0.34440983039113876,0.017637153239386683
-0.0437,0.005,0.1882,0.0,0.0
0.0724,-0.005,-0.6696,0.0,0.0
-0.2618,0.205,0.7277,0.0,0.0
0.2155,-0.205,-0.2353,0.0,0.0
0.032,-0.005,-0.0779,0.0,0.0
0.0184,0.0385,0.1936,0.0,0.0
0.416,-0.005,-0.274,0.0,0.0
0.651,-0.205,-0.18,0.0,0.0
0.0172,0.205,0.3966,0.0,0.0
0.4726,-0.005,-0.0835,0.0,0.0
-0.1617,0.205,0.309,0.0,0.0
0.157,-0.205,-0.3148,0.0,0.0
-0.1911,-0.0443,-0.4628,0.34164070612668745,0.017495346982185588
0.1422,-0.005,-0.3455,0.0,0.0
0.182,0.205,-0.2617,0.34510211145725167,0.017672604803686962
-0.2857,0.205,0.4264,0.0,0.0
0.3909,-0.203,0.0285,0.0,0.0
-0.0278,0.205,0.5106,0.0,0.0
0.3916,-0.052,-0.5172,0.0,0.0
-0.1767,-0.005,0.6067,0.0,0.0
-0.5789,0.205,0.3651,0.0,0.0
-0.4144,0.215,0.4733,0.0,0.0
0.2298,0.005,0.5125,0.0,0.0
-0.1252,0.005,0.7163,0.0,0.0
-0.2418,0.215,0.7129,0.0,0.0
0.084,0.005,0.6654,0.0,0.0
-0.1269,0.005,0.0427,0.0,0.0
0.1477,0.005,-0.5437,0.0,0.0
0.1966,0.005,-0.4359,0.0,0.0
-0.2279,0.005,-0.2844,0.0,0.0
0.2511,0.005,0.6236,0.0,0.0
-0.2306,0.005,0.1474,0.0,0.0
-0.7628,0.215,0.4499,0.0,0.0
0.2673,0.005,0.575,0.0,0.0
-0.0464,-0.1046,0.7422,1.0339217722395293,0.05294691128246033
-0.1011,0.005,0.0656,0.0,0.0
-0.4165,0.205,0.5244,0.0,0.0
0.2818,0.205,0.7256,0.0,0.0
-0.2458,-0.205,-0.2765,0.0,0.0
0.7261,-0.0393,-0.2091,0.0,0.0
-0.779,0.0818,0.5664,0.5673243336794738,0.029052556944075148
-0.2881,-0.1812,0.7421,0.0,0.0
0.3438,0.005,-0.3479,0.0,0.0
-0.1836,0.005,-0.4284,0.0,0.0
-0.1611,0.205,-0.0375,0.0,0.0
-0.3382,-0.0797,-0.2497,0.0,0.0
0.0311,0.205,-0.0402,0.3447559709241953,0.017654879021536826
0.0877,-0.0797,0.5461,0.0,0.0
0.2939,-0.1924,-0.559,0.0,0.0
0.5232,-0.205,-0.1687,0.0,0.0
0.3224,0.1528,-0.5695,1.0328833506403599,0.052893733936009914
-0.0053,0.005,0.404,0.0,0.0
-0.2905,-0.0971,-0.3189,0.0,0.0
-0.2627,0.215,0.1833,0.9117341640706127,0.04668971018346184
0.1671,-0.005,-0.4685,0.0,0.0
0.0497,-0.005,0.1879,0.0,0.0
0.0241,-0.1476,0.7422,0.0,0.0
0.2039,0.1496,0.7422,0.0,0.0
0.1606,0.205,-0.5575,0.0,0.0
0.0421,-0.205,0.0968,0.0,0.0
0.1834,0.1028,0.3383,0.0,0.0
0.1457,0.215,-0.4495,0.43682935271720313,0.022369937073473362
0.5882,0.005,-0.2984,0.0,0.0
0.3119,0.1801,0.6074,0.0,0.0
-0.3957,0.005,0.1103,0.0,0.0
-0.2951,0.215,0.5266,0.0,0.0
0.144,0.215,-0.3642,0.6884735202492211,0.035256580696623234
-0.7274,-0.005,0.36,0.0,0.0
-0.1537,-0.205,0.1768,0.34510211145725167,0.017672604803686962
-0.4145,-0.005,0.0099,0.0,0.0
-0.0887,0.205,0.5181,0.0,0.0
0.0877,-0.0258,0.35,0.23295257874697128,0.011929451387042453
0.4347,0.0017,-0.4902,0.9103496019383871,0.046618807054861294
0.3302,0.205,-0.3336,0.0,0.0
-0.1937,0.005,0.3524,0.0,0.0
-0.0804,0.005,-0.0689,0.0,0.0
-0.0778,-0.005,0.0448,0.0,0.0
0.06,0.0324,0.3382,0.0,0.0
-0.8048,0.215,0.6747,0.0,0.0
-0.0526,-0.005,-0.2754,0.0,0.0
0.0388,-0.205,0.7086,0.0,0.0
-0.5788,0.005,0.6218,0.0,0.0
0.3017,-0.005,0.3776,3.6497057805469018,0.18690064699104844
0.0417,-0.0392,-0.7331,0.5673243336794738,0.029052556944075148
0.0738,-0.205,0.1568,0.0,0.0
-0.5728,0.205,0.6584,0.0,0.0
-0.3246,-0.0669,-0.2694,0.0,0.0
-0.1753,0.205,0.4783,0.0,0.0
-0.0037,0.205,0.5763,0.0,0.0
-0.0968,-0.005,-0.1439,0.0,0.0
-0.5182,0.005,0.6226,0.0,0.0
-0.3147,0.215,0.5753,0.0,0.0
-0.1464,0.205,0.1064,0.343717549325026,0.017601701675086415
-0.3453,0.005,0.5652,0.0,0.0
-0.279,0.2025,0.0513,0.0,0.0
-0.1902,0.205,0.6258,0.0,0.0
0.5545,-0.205,-0.0435,0.0,0.0
-0.241,-0.005,0.3348,0.0,0.0
0.1613,0.215,-0.0714,6.702319141571477,0.3432243197731099
-0.3459,0.215,0.4568,0.0,0.0
0.0192,0.205,0.1517,0.23260643821391486,0.011911725604892315
0.1134,-0.205,-0.1335,0.23260643821391486,0.011911725604892315
-0.4363,0.1098,0.2792,0.0,0.0
-0.1161,0.005,-0.1323,0.0,0.0
-0.477,-0.0578,0.6217,0.3447559709241953,0.017654879021536826
-0.2335,0.215,0.639,0.0,0.0
0.2746,0.205,-0.4829,0.0,0.0
-0.067,0.215,0.6336,0.0,0.0
0.105,0.005,-0.1442,0.0,0.0
-0.4039,-0.205,0.707,0.34579439252336447,0.017708056367987234
-0.1788,-0.005,0.2068,0.0,0.0
-0.3804,-0.005,0.7179,0.0,0.0
-0.2292,0.215,0.5344,0.45586708203530635,0.02334485509173092
-0.385,0.005,0.5727,0.0,0.0
-0.158,0.1312,-0.1241,0.0,0.0
-0.0673,-0.157,0.7422,0.0,0.0
0.2761,0.1988,-0.1798,0.22291450328833506,0.011415403704688468
-0.4448,0.1704,0.7421,0.0,0.0
-0.4252,0.205,0.2869,0.0,0.0
-0.1398,0.1815,0.7421,0.0,0.0
-0.083,-0.205,-0.4435,0.0,0.0
0.2676,0.205,-0.4638,0.0,0.0
0.1706,0.205,0.3832,0.6884735202492214,0.03525658069662324
0.0232,-0.005,-0.1992,0.0,0.0
-0.0429,-0.205,0.3108,0.0,0.0
-0.0359,0.005,0.58,0.0,0.0
-0.1062,-0.205,0.2899,0.5669781931464175,0.02903483116192502
0.0926,0.005,0.622,1.1318795430944963,0.05796330763094921
-0.4771,-0.0355,0.65,0.0,0.0
0.2174,0.205,-0.4868,0.0,0.0
0.0196,0.005,-0.5834,0.0,0.0
0.2459,-0.005,-0.1038,0.9030806507442022,0.04624656562970841
-0.3204,0.215,0.4655,0.0,0.0
0.0504,0.205,0.6701,0.0,0.0
0.1631,0.189,-0.016,0.0,0.0
-0.3705,-0.205,0.011,0.0,0.0
-0.0224,0.005,0.4287,0.0,0.0
0.4029,0.205,-0.4281,0.0,0.0
0.1837,0.005,-0.2019,0.0,0.0
-0.09,0.205,0.0714,0.0,0.0
-0.0776,-0.205,-0.3914,0.23606784354447907,0.012088983426393689
-0.2651,-0.005,0.4264,0.0,0.0
-0.1669,0.1336,-0.1111,0.0,0.0
0.0246,-0.005,-0.0612,0.0,0.0
-0.8241,0.205,0.3946,0.0,0.0
0.3924,0.005,-0.3669,0.0,0.0
-0.3901,-0.205,0.1932,0.34544825199030804,0.017690330585837098
-0.2745,-0.1237,-0.342,0.0,0.0
-0.0884,0.005,0.4886,0.0,0.0
-0.0703,0.0657,-0.2512,0.3447559709241953,0.017654879021536826
-0.3627,0.005,0.5118,0.0,0.0
0.1514,0.215,0.4386,0.0,0.0
-0.779,0.1492,0.7254,0.0,0.0
0.1151,0.0128,-0.5197,0.0,0.0
0.3167,0.005,-0.5023,0.0,0.0
0.061,0.005,0.6794,0.0,0.0
-0.8078,0.205,0.3599,0.0,0.0
-0.2428,0.005,0.5381,0.0,0.0
-0.6283,0.005,0.6423,0.0,0.0
-0.3308,-0.005,0.4833,0.0,0.0
0.0367,-0.205,0.3038,0.0,0.0
-0.1884,0.205,0.1278,0.3440636898580824,0.017619427457236547
-0.127,0.005,0.4218,0.0,0.0
0.3308,0.215,-0.5782,0.0,0.0
0.1116,-0.005,0.3869,0.7995846313603323,0.040946556766817334
0.0356,0.005,0.4623,0.0,0.0
0.189,-0.0582,-0.0536,4.439944617514712,0.22736860763981212
-0.1942,-0.005,0.3838,0.0,0.0
-0.5222,0.215,0.4865,0.0,0.0
-0.4322,0.005,-0.0436,0.0,0.0
-0.3661,0.0721,0.1774,0.0,0.0
0.0711,0.205,0.7479,0.34579439252336447,0.017708056367987234
-0.2569,0.005,0.3602,0.0,0.0
-0.0402,0.205,-0.1956,0.0,0.0
-0.0285,-0.005,0.6935,0.0,0.0
-0.5565,-0.005,0.3387,0.7902388369678088,0.040467960648763616
-0.1409,-0.205,0.444,0.0,0.0
-0.1232,-0.205,-0.3624,0.0,0.0
0.199,0.0686,-0.068,0.2232606438213915,0.011433129486838606
-0.2164,-0.1202,-0.4262,0.0,0.0
0.0341,-0.005,0.5046,0.0,0.0
0.0578,0.215,0.6336,0.0,0.0
0.0125,0.205,-0.1063,0.0,0.0
-0.3722,0.215,0.2766,0.0,0.0
-0.0082,0.1862,0.7422,0.34579439252336447,0.017708056367987234
-0.0858,0.205,0.6241,0.0,0.0
-0.3716,0.044,0.7421,0.0,0.0
-0.1969,-0.205,0.5394,0.0,0.0
0.0523,0.005,-0.0167,0.0,0.0
-0.1608,0.215,-0.008,0.0,0.0
0.1125,-0.1,0.0573,0.9203876773970232,0.04713285473721528
0.3488,0.205,-0.4091,0.0,0.0
-0.0437,0.005,0.5966,0.0,0.0
0.0622,0.205,0.5785,0.34510211145725167,0.017672604803686962
-0.2233,0.215,0.0821,0.0,0.0
-0.0443,0.205,0.1939,5.015576323987539,0.25684658335549054
-0.0839,-0.205,0.5168,0.0,0.0
0.0472,0.205,-0.155,0.0,0.0
-0.6897,0.005,0.5561,0.0,0.0
0.3362,0.215,0.4083,0.0,0.0
0.0893,-0.205,-0.0095,1.9484250605745934,0.09977842772312327
0.2345,0.205,-0.4221,0.0,0.0
-0.2713,0.005,0.6989,0.0,0.0
0.4159,0.005,-0.1131,0.5680166147455867,0.02908800850837543
-0.3926,0.205,0.6618,0.0,0.0
-0.013,0.005,-0.0448,0.0,0.0
-0.0363,0.205,0.6182,0.0,0.0
-0.2715,-0.005,-0.3176,0.0,0.0
-0.5772,0.215,0.7163,0.0,0.0
-0.7855,0.215,0.7183,0.0,0.0
-0.0442,0.205,0.0031,0.0,0.0
-0.0827,0.005,0.1959,0.0,0.0
-0.05,0.1567,-0.2806,0.0,0.0
0.2878,0.005,-0.56,0.34440983039113876,0.017637153239386683
-0.0709,0.0783,0.323,0.0,0.0
-0.3682,0.215,0.5935,0.0,0.0
-0.477,-0.1444,0.5749,0.0,0.0
0.4529,-0.205,-0.1653,0.37210107303565243,0.01905521581139767
-0.2211,0.005,0.0458,0.0,0.0
-0.2739,0.005,0.2397,0.0,0.0
0.2287,0.005,0.5748,0.0,0.0
-0.055,-0.005,0.5743,0.0,0.0
-0.5277,0.005,0.548,0.0,0.0
-0.7618,0.205,0.4532,0.0,0.0
-0.0535,-0.005,0.3842,0.0,0.0
-0.3554,0.005,0.7031,0.0,0.0
-0.6076,0.215,0.4868,0.0,0.0
0.1433,-0.0499,0.0126,0.6777431637244722,0.03470708144996898
0.0798,-0.1219,0.7422,0.0,0.0
0.6947,-0.205,-0.1906,0.0,0.0
-0.2127,0.005,0.4988,0.0,0.0
0.6553,-0.0351,-0.1065,0.0,0.0
-0.6415,0.215,0.7258,0.0,0.0
-0.1985,0.205,0.0758,0.0,0.0
0.0064,0.005,-0.1307,0.0,0.0
-0.7469,0.205,0.6364,0.0,0.0
0.2022,0.205,0.6012,0.0,0.0
0.2002,0.205,0.4289,0.0,0.0
-0.3214,0.205,0.5403,0.0,0.0
0.0891,-0.005,-0.3751,0.0,0.0
-0.3694,0.215,0.699,0.0,0.0
-0.2392,0.1404,0.7421,0.0,0.0
0.231,0.205,0.456,0.0,0.0
-0.7174,-0.005,0.4622,0.0,0.0
0.1312,-0.005,-0.2957,0.0,0.0
-0.7283,0.205,0.666,0.0,0.0
-0.477,-0.0505,0.5109,0.0,0.0
-0.2214,0.005,0.0205,0.0,0.0
-0.6317,0.005,0.7121,0.0,0.0
0.304,0.0484,-0.2202,3.1903772931810317,0.16337853407781616
0.0075,-0.1363,-0.7506,0.0,0.0
0.0339,0.205,-0.1881,0.0,0.0
0.0503,0.205,0.0889,1.0231914157147803,0.05239741203580608
-0.2326,-0.205,0.1056,0.0,0.0
-0.696,0.005,0.6008,0.4551748009691935,0.023309403527430644
-0.2269,-0.0305,-0.411,0.0,0.0
-0.1618,0.1678,-0.1185,0.23295257874697128,0.011929451387042453
-0.0073,0.215,0.45,0.0,0.0
0.0553,-0.005,0.1624,0.0,0.0
-0.2913,-0.205,0.355,0.0,0.0
-0.3493,0.005,0.6285,0.0,0.0
0.1699,0.005,0.4143,0.0,0.0
-0.3524,0.205,0.5268,0.0,0.0
-0.4047,-0.1284,-0.1534,0.0,0.0
0.5377,0.005,-0.1422,0.7902388369678089,0.04046796064876362
-0.0088,0.215,-0.0557,0.0,0.0
-0.1327,0.005,0.6457,0.0,0.0
-0.041,-0.1407,0.7422,0.45586708203530635,0.02334485509173092
0.3757,0.0439,-0.3242,1.710626514364832,0.08760081538597889
-0.2563,0.205,0.2939,0.0,0.0
0.2951,0.1006,-0.2073,0.0,0.0
0.229,-0.005,0.5214,0.4555209415022499,0.023327129309580783
0.0023,0.205,-0.1048,0.0,0.0
0.0051,0.005,0.2893,0.0,0.0
-0.2183,-0.1712,-0.4234,0.0,0.0
0.2014,0.1106,-0.0716,0.0,0.0
0.3819,0.215,-0.5053,1.1450328833506402,0.058636887352654425
-0.2626,0.205,0.1419,0.4565593631014192,0.023380306656031195
-0.0319,-0.005,-0.4558,0.0,0.0
-0.2173,0.005,-0.0366,0.0,0.0
-0.1352,-0.005,0.7343,0.9113880235375562,0.0466719844013117
0.0877,-0.1154,0.6961,0.0,0.0
0.234,-0.005,0.5489,0.6784354447905849,0.034742533014269245
0.0229,0.005,0.0617,0.0,0.0
-0.3233,0.005,0.6809,0.0,0.0
-0.1286,0.005,0.3465,0.0,0.0
0.0125,-0.005,-0.6045,0.0,0.0
-0.7952,0.205,0.6471,0.0,0.0
0.3078,0.205,0.7132,0.4150224991346486,0.021253212798014707
-0.6582,0.005,0.629,0.0,0.0
0.0154,0.215,0.0499,1.3686396677050883,0.07008774262164318
-0.477,-0.0831,0.6122,0.34683281412253375,0.017761233714437646
-0.4759,0.005,0.6579,0.0,0.0
-0.2836,0.005,-0.2265,0.44582900657667013,0.022830807409376937
0.5028,-0.005,-0.369,0.0,0.0
-0.1278,0.1467,-0.1679,0.0,0.0
-0.477,-0.2035,0.1921,0.5673243336794738,0.029052556944075148
0.6424,-0.205,-0.1307,0.0,0.0
0.0574,0.005,0.359,0.0,0.0
-0.0438,-0.205,-0.1612,0.9238490827275874,0.047310112558716644
0.3382,0.205,-0.5071,0.0,0.0
-0.4185,0.1681,0.7421,0.23295257874697128,0.011929451387042453
-0.5059,0.005,0.381,0.23260643821391486,0.011911725604892315
-0.0902,0.205,0.5152,0.0,0.0
-0.1323,-0.0696,-0.5481,0.0,0.0
0.3564,0.005,-0.4332,0.0,0.0
-0.0571,0.205,-0.0734,0.0,0.0
-0.1922,0.005,0.7088,0.0,0.0
-0.2595,0.215,0.1618,1.1450328833506405,0.05863688735265443
-0.4071,-0.005,0.5269,0.0,0.0
0.175,0.205,-0.4459,0.43682935271720313,0.022369937073473362
-0.2889,0.205,0.5852,0.0,0.0
-0.2653,-0.1125,-0.3554,0.0,0.0
0.167,0.0749,-0.595,0.0,0.0
-0.6635,0.0672,0.3381,0.7898926964347526,0.040450234866613484
-0.1855,0.215,0.1527,0.3440636898580824,0.017619427457236547
-0.4188,-0.205,0.0432,0.0,0.0
0.0877,-0.1159,0.5422,0.0,0.0
-0.5647,0.205,0.4246,0.0,0.0
-0.3482,-0.205,0.5832,0.0,0.0
-0.2068,0.005,0.6937,0.0,0.0
0.127,0.205,0.6576,0.0,0.0
-0.0043,0.0301,0.2266,0.0,0.0
-0.0066,-0.005,0.5014,0.0,0.0
-0.2752,0.005,-0.2091,0.44582900657667013,0.022830807409376937
-0.4418,-0.005,0.7419,0.0,0.0
-0.1545,-0.005,0.0816,0.0,0.0
-0.0515,0.1031,0.2949,0.0,0.0
0.0877,-0.0787,0.6877,0.0,0.0
-0.0267,0.205,-0.2308,0.0,0.0
-0.2206,-0.205,0.1253,0.0,0.0
0.1135,0.205,-0.2024,1.1460713049498097,0.058690064699104844
0.0589,0.215,0.6748,0.0,0.0
0.0198,0.005,0.1,0.0,0.0
-0.1099,-0.1153,-0.5806,0.0,0.0
-0.2645,0.005,0.5806,0.0,0.0
0.3628,0.0435,-0.5473,1.7026652821045345,0.08719312239652574
-0.6357,0.005,0.6427,0.0,0.0
-0.3233,0.205,0.2371,0.0,0.0
-0.0578,0.215,0.4428,0.0,0.0
-0.2188,0.215,0.333,0.0,0.0
0.1827,-0.0955,-0.0445,1.4721356870889584,0.07538775148453426
-0.3471,0.005,0.5595,0.0,0.0
-0.3808,-0.005,0.1993,0.0,0.0
-0.3584,-0.149,0.7421,0.0,0.0
-0.1917,0.005,0.1592,0.0,0.0
0.3119,0.1975,0.5358,0.0,0.0
-0.0415,0.205,0.7458,0.0,0.0
0.5384,-0.205,-0.255,0.0,0.0
-0.1909,-0.205,0.5377,0.0,0.0
-0.2476,0.205,0.3029,0.0,0.0
-0.3054,-0.005,0.3524,0.0,0.0
-0.0088,-0.1671,0.7422,0.3440636898580824,0.017619427457236547
0.5107,-0.205,-0.3581,0.0,0.0
0.2662,0.205,0.6453,0.0,0.0
0.2926,0.205,0.4493,0.0,0.0
