x,y,z,SaliencyScore,NormalizedScore
-0.3245,-0.21,-0.5624,0.0,0.0
0.518,-0.01,-0.5519,0.0,0.0
-0.5806,0.01,-0.054,0.0,0.0
0.0032,0.21,-0.1747,0.4557393501055473,0.03164322768370949
-0.384,-0.01,-0.5614,0.0,0.0
-0.6915,0.0457,-0.378,0.0,0.0
-0.5543,0.01,-0.3504,0.0,0.0
0.3778,-0.21,-0.0059,0.0,0.0
-0.0984,0.21,-0.6355,0.0,0.0
0.4121,0.0,0.4913,0.0,0.0
0.5878,-0.22,0.3111,0.0,0.0
0.2976,-0.01,0.6487,0.0,0.0
-0.4163,0.0,-0.1784,0.0,0.0
-0.2873,0.01,-0.4486,0.0,0.0
-0.2427,0.21,0.1696,0.0,0.0
0.0844,-0.012,0.3763,0.0,0.0
-0.6539,0.0,0.5132,0.0,0.0
-0.6915,-0.1408,-0.0515,0.0,0.0
0.0844,-0.0011,0.3966,0.0,0.0
0.4165,-0.22,0.5383,0.0,0.0
-0.312,0.21,0.0189,0.0,0.0
-0.4514,0.22,-0.5772,0.0,0.0
0.6915,-0.2011,0.5841,0.32622763608679106,0.022650875688092136
-0.0824,-0.01,-0.1769,1.4423123507630549,0.10014368541064474
-0.1984,-0.01,0.2529,0.3267467211129183,0.02268691717905653
-0.6915,-0.1,-0.4174,0.0,0.0
0.1038,-0.21,-0.5581,0.0,0.0
0.6915,-0.2178,0.1433,0.32596809357372736,0.022632854942609932
-0.1816,0.0,-0.2794,4.123576841886701,0.2863112014551151
-0.3947,0.0,-0.5862,0.0,0.0
0.3319,0.0,-0.0137,0.0,0.0
0.0481,-0.22,-0.4248,0.0,0.0
0.6792,-0.01,-0.2445,0.0,0.0
0.1747,-0.21,0.3123,0.0,0.0
0.303,-0.0787,0.1616,0.0,0.0
0.4742,-0.21,0.4223,0.0,0.0
-0.4952,0.21,-0.3422,0.0,0.0
-0.0127,-0.22,-0.5551,0.0,0.0
-0.1037,0.0,-0.2913,1.0085649029311001,0.07002741556079359
0.4568,0.0,0.3428,0.0,0.0
-0.2136,-0.01,0.0185,4.662542824514656,0.3237330815234498
-0.6915,0.1019,-0.0392,0.0,0.0
-0.6915,-0.0225,0.4883,0.0,0.0
0.5387,-0.21,0.6346,0.22779181229885456,0.015816207618210086
-0.4308,0.01,-0.2757,0.0,0.0
-0.3107,-0.1898,0.3619,0.0,0.0
-0.408,0.0,-0.209,0.0,0.0
-0.3158,-0.21,0.183,0.0,0.0
-0.3977,-0.21,-0.3589,0.0,0.0
-0.3764,0.0,0.0448,0.0,0.0
0.0844,-0.085,0.6023,0.0,0.0
-0.5634,0.0,-0.1262,0.0,0.0
-0.6596,0.0837,-0.67,0.0,0.0
-0.6915,0.1228,-0.5475,0.0,0.0
-0.445,0.0,-0.318,0.0,0.0
-0.3527,0.0,-0.1475,0.0,0.0
-0.5669,-0.01,-0.1502,0.0,0.0
-0.3362,0.22,0.0694,0.3267467211129183,0.02268691717905653
0.4848,-0.01,0.2268,0.0,0.0
-0.2847,0.0,-0.1659,1.852181887393155,0.12860204667613356
-0.516,-0.22,0.4155,0.0,0.0
0.3875,-0.01,0.5883,0.0,0.0
0.2677,-0.21,-0.6689,0.0,0.0
-0.5976,-0.01,0.1789,0.0,0.0
0.3564,-0.01,-0.149,0.0,0.0
-0.0919,-0.21,-0.6202,0.0,0.0
-0.087,-0.2195,-0.2386,0.0,0.0
0.0005,-0.21,-0.6599,0.0,0.0
0.0442,-0.22,-0.466,0.0,0.0
-0.6915,0.1866,0.0478,0.0,0.0
0.4824,-0.22,0.4084,0.0,0.0
0.0907,0.0,-0.5424,0.0,0.0
0.6813,-0.22,0.2547,0.23583763020382736,0.016374850728158256
0.0524,0.21,-0.2761,0.0,0.0
-0.4658,0.0,-0.0885,0.0,0.0
-0.1476,0.0,-0.5439,0.0,0.0
-0.2044,0.0,-0.5348,0.0,0.0
-0.3965,0.0,-0.0377,0.0,0.0
0.6915,-0.0404,-0.1027,0.0,0.0
0.5593,-0.01,0.0116,0.0,0.0
0.2963,-0.1518,-0.67,0.0,0.0
0.6814,0.0,-0.4018,0.0,0.0
0.0844,-0.0149,0.5848,0.0,0.0
-0.6512,0.1781,-0.67,0.0,0.0
0.314,-0.22,0.6508,0.0,0.0
-0.3182,0.0,-0.3836,0.0,0.0
0.303,-0.0169,0.2439,0.0,0.0
-0.3798,0.01,-0.3702,0.0,0.0
-0.6855,0.0,-0.1081,0.0,0.0
0.2188,-0.21,0.5771,0.0,0.0
-0.4343,0.21,-0.5445,0.0,0.0
0.4326,0.0,-0.4903,0.0,0.0
-0.491,0.01,-0.1566,0.0,0.0
0.0063,-0.22,-0.4706,0.0,0.0
-0.5946,0.01,0.0355,0.0,0.0
0.3287,0.0,-0.5926,0.0,0.0
-0.4069,0.0,-0.0037,0.0,0.0
-0.4523,-0.21,-0.2788,0.0,0.0
0.682,-0.22,-0.118,0.0,0.0
0.0798,-0.21,-0.6291,0.0,0.0
-0.5384,0.01,-0.3449,0.0,0.0
-0.6915,-0.019,-0.5647,0.0,0.0
0.625,0.0,0.0912,0.32596809357372736,0.022632854942609932
-0.208,0.1342,-0.28,0.0,0.0
-0.428,0.1004,0.17,0.8908883275080457,0.061856809559164505
-0.6915,-0.0699,-0.2208,0.0,0.0
0.1326,-0.21,-0.3398,0.0,0.0
0.5183,0.0,-0.0686,0.0,0.0
-0.3963,0.01,0.079,0.0,0.0
-0.2674,0.0,-0.3554,0.0,0.0
-0.4096,-0.01,0.2268,0.4181748970481365,0.029035025120919204
-0.0844,0.1556,-0.3598,0.0,0.0
0.3883,0.0,0.0089,0.0,0.0
-0.4959,0.0,0.179,0.0,0.0
0.3362,0.0,-0.5643,0.0,0.0
-0.3531,0.0,-0.1552,0.0,0.0
-0.1095,0.01,-0.5433,0.0,0.0
0.3196,-0.0755,-0.4106,0.0,0.0
-0.4202,-0.01,0.3536,0.0,0.0
0.0198,0.0,-0.3689,0.32596809357372736,0.022632854942609932
-0.348,-0.21,0.2778,0.0,0.0
-0.2225,0.0,-0.2464,4.799685088417482,0.3332552434362438
0.3666,-0.22,0.2743,0.5542789908987091,0.03848510405178441
-0.6915,0.1491,-0.6313,0.0,0.0
0.303,-0.1939,0.1168,0.0,0.0
-0.6716,0.21,-0.6546,0.0,0.0
-0.2747,-0.01,-0.3987,0.0,0.0
-0.1345,0.0,-0.3633,0.0,0.0
-0.425,0.1745,-0.67,0.0,0.0
0.1995,-0.22,0.6597,0.32622763608679106,0.022650875688092136
-0.6311,-0.01,-0.2791,0.0,0.0
-0.6807,0.0,-0.065,0.0,0.0
-0.4463,0.1684,-0.67,0.0,0.0
-0.0748,-0.21,-0.318,0.0,0.0
0.5702,0.0,-0.6644,0.0,0.0
-0.3513,-0.21,0.0006,0.0,0.0
-0.0863,-0.1676,-0.67,0.0,0.0
0.3312,-0.1962,0.28,0.0,0.0
0.3541,-0.22,0.0084,0.0,0.0
-0.3533,0.0,-0.1283,0.0,0.0
-0.4478,0.21,-0.0198,0.0,0.0
-0.1463,-0.0513,-0.2667,7.21211544450981,0.5007568713102524
-0.3107,-0.1402,-0.2254,2.3212617226701733,0.1611715406776281
-0.4681,0.01,-0.1469,0.0,0.0
-0.1356,-0.1506,-0.67,0.0,0.0
-0.4962,-0.01,0.2067,0.0,0.0
-0.6915,-0.0465,-0.431,0.0,0.0
-0.1982,0.21,-0.406,0.0,0.0
0.4874,-0.1403,0.67,1.3459528670796277,0.09345318330462028
0.6478,-0.22,0.4793,0.0,0.0
0.4635,-0.01,-0.3284,0.22779181229885456,0.015816207618210086
0.6668,0.0,-0.5847,0.0,0.0
-0.5324,0.0,0.0137,0.0,0.0
-0.1144,0.21,-0.3981,0.3249299235214728,0.02256077196068114
-0.6915,-0.2111,-0.4449,0.0,0.0
-0.4634,0.0506,-0.67,0.0,0.0
-0.4517,0.0,-0.1466,0.0,0.0
-0.3354,0.0,-0.5442,0.0,0.0
0.0844,-0.1521,0.3966,0.0,0.0
0.2745,0.0,-0.3026,0.32596809357372736,0.022632854942609932
-0.303,0.0129,-0.0671,0.0,0.0
-0.4891,-0.01,-0.1483,0.0,0.0
-0.3977,-0.22,0.5236,0.0,0.0
0.5342,-0.01,-0.3808,0.0,0.0
-0.222,0.21,-0.1118,0.22857043983804545,0.01587026985465668
-0.1643,0.0,-0.6555,0.0,0.0
-0.5458,0.01,-0.2542,0.0,0.0
-0.3055,0.2137,-0.67,0.0,0.0
0.2488,-0.1314,-0.2695,0.0,0.0
-0.6436,0.0,0.2039,0.0,0.0
-0.2714,-0.01,-0.128,0.3264871785998546,0.022668896433574327
-0.4584,-0.21,0.0148,0.0,0.0
-0.0652,0.0,-0.6677,0.0,0.0
-0.4375,0.0,-0.3873,0.0,0.0
-0.5532,-0.01,-0.6168,0.0,0.0
0.2099,-0.22,0.3998,0.32700626362598195,0.02270493792453873
-0.4483,-0.22,0.3908,0.0,0.0
0.6915,-0.0421,0.1677,0.32700626362598195,0.02270493792453873
-0.4974,0.0,0.0055,0.0,0.0
-0.3264,-0.21,0.2752,0.0,0.0
-0.3716,0.21,-0.0236,0.0,0.0
-0.3509,0.22,-0.3893,0.0,0.0
0.4319,-0.21,0.5415,0.0,0.0
-0.1253,0.22,-0.6619,0.0,0.0
-0.2843,-0.22,-0.4137,0.0,0.0
-0.0688,0.0,-0.5687,0.0,0.0
0.359,-0.01,0.5618,0.45295359379866423,0.031449805015533884
-0.5879,0.21,-0.287,0.0,0.0
0.6915,-0.2139,0.5743,0.7882998235110912,0.05473380956156729
0.0411,-0.22,-0.4656,0.0,0.0
0.6145,0.0,-0.6327,0.0,0.0
-0.6911,-0.21,-0.6585,0.0,0.0
0.6915,-0.1825,0.2023,0.0,0.0
-0.5118,0.0,-0.0042,0.0,0.0
-0.3191,-0.01,0.4444,0.0,0.0
-0.5855,0.2152,-0.67,0.0,0.0
-0.255,-0.01,0.084,0.0,0.0
-0.5216,0.01,-0.3703,0.0,0.0
-0.4884,-0.0053,-0.67,0.0,0.0
0.5734,0.0,-0.5571,0.0,0.0
-0.6915,0.0111,0.0439,0.0,0.0
-0.314,-0.21,0.2934,0.0,0.0
-0.6915,-0.1725,-0.3704,0.0,0.0
-0.1911,-0.0045,0.0466,0.5542789908987091,0.03848510405178441
-0.2325,0.0988,-0.28,0.0,0.0
-0.5779,0.0,0.2373,0.0,0.0
0.1815,-0.22,0.4147,0.32778489116517284,0.022759000160985327
0.4962,-0.21,0.2328,0.7818112606845001,0.054283290924512305
0.6915,-0.1511,0.2925,0.0,0.0
0.196,-0.21,-0.4827,0.0,0.0
0.2213,-0.01,-0.6436,0.7446620756479911,0.051703921554493534
-0.4057,-0.01,-0.2839,0.0,0.0
-0.22,-0.22,-0.4964,0.0,0.0
0.2109,-0.01,0.5353,0.0,0.0
-0.2853,0.22,-0.5722,0.0,0.0
-0.4134,-0.21,-0.4637,0.0,0.0
-0.417,-0.21,-0.018,0.0,0.0
-0.0844,0.0612,-0.4633,0.3257085510606637,0.02261483419712773
-0.6432,0.0,0.1543,0.0,0.0
-0.3578,-0.22,0.3338,0.0,0.0
0.6842,-0.01,0.3944,0.4173962695089456,0.02898096288447261
0.3196,-0.1179,-0.6632,0.0,0.0
-0.3107,-0.1327,-0.1517,3.2046233172993737,0.22250574861780884
-0.1331,0.22,-0.4125,0.0,0.0
0.0777,0.21,-0.4726,0.0,0.0
-0.1477,-0.0437,-0.2667,7.909506177111811,0.5491786144209214
-0.6458,0.0,-0.6317,0.0,0.0
-0.4866,0.1127,-0.67,0.0,0.0
0.6915,-0.2038,0.2568,0.0,0.0
-0.6915,-0.1346,-0.175,0.0,0.0
-0.4036,0.0,-0.3854,0.0,0.0
0.0744,-0.1955,-0.67,0.0,0.0
-0.3864,0.21,0.0772,0.0,0.0
0.5933,-0.0764,-0.17,0.0,0.0
0.5317,0.0,0.3205,0.0,0.0
-0.5086,-0.22,-0.3896,0.0,0.0
-0.2837,-0.01,0.0697,0.6454476243208638,0.04481519124816489
-0.4481,0.22,-0.3031,0.0,0.0
-0.0919,0.21,-0.4536,0.6550506973042185,0.04548195883100626
0.1112,-0.01,-0.2852,0.0,0.0
0.6059,-0.01,0.1171,0.0,0.0
0.4661,0.0,-0.2548,0.0,0.0
-0.4606,0.0,0.5185,0.0,0.0
-0.276,-0.0447,-0.67,0.0,0.0
-0.6579,0.0,-0.1305,0.0,0.0
0.4037,-0.22,0.327,0.0,0.0
-0.6915,0.0042,-0.2343,0.0,0.0
-0.6915,-0.1552,0.0431,0.0,0.0
0.3066,-0.22,-0.3993,0.0,0.0
-0.3125,0.0,-0.1637,0.22779181229885456,0.015816207618210086
-0.6731,-0.22,0.3757,0.0,0.0
0.3799,0.0,-0.2317,0.0,0.0
-0.3107,-0.149,0.1876,0.0,0.0
-0.3107,-0.0776,-0.0169,0.782589888223691,0.0543373531609589
-0.4834,-0.21,-0.3807,0.0,0.0
-0.5975,0.0,-0.0458,0.0,0.0
-0.2782,-0.01,-0.4166,0.0,0.0
-0.421,0.01,0.0488,0.0,0.0
-0.354,-0.01,0.3061,1.9446482333806276,0.13502223759992504
0.5415,0.0,0.2513,0.0,0.0
-0.6256,0.2126,-0.67,0.0,0.0
0.1913,-0.22,-0.6159,0.0,0.0
-0.6915,-0.0369,0.1619,0.24310482056960928,0.01687943160165983
0.318,-0.1188,0.28,0.0,0.0
0.3358,-0.1758,0.67,0.0,0.0
-0.5724,0.22,-0.0696,0.0,0.0
0.6397,-0.22,-0.1214,0.0,0.0
-0.5838,-0.01,0.4182,0.0,0.0
-0.1109,0.01,-0.4962,0.0,0.0
-0.4117,-0.21,0.0048,0.0,0.0
-0.4989,0.0,-0.4583,0.0,0.0
-0.4073,-0.22,0.3152,0.0,0.0
-0.493,-0.01,-0.4495,0.0,0.0
-0.6915,0.1754,-0.5866,0.0,0.0
-0.4033,0.22,-0.3878,0.0,0.0
0.5413,-0.01,0.0121,0.0,0.0
-0.4869,-0.22,-0.2216,0.0,0.0
0.0858,-0.01,-0.5252,0.0,0.0
-0.4136,0.22,0.1435,0.0,0.0
0.4788,0.0,-0.2617,0.0,0.0
-0.4081,-0.21,-0.084,0.0,0.0
-0.4833,0.0,0.2973,0.22779181229885456,0.015816207618210086
-0.6082,0.01,-0.4098,0.0,0.0
0.6914,-0.22,-0.1348,0.0,0.0
-0.2811,-0.01,0.176,0.4181748970481365,0.029035025120919204
-0.5446,0.01,-0.3983,0.0,0.0
-0.6915,0.1286,0.1447,0.0,0.0
-0.6766,0.0,0.0145,0.0,0.0
-0.4224,0.0,0.3342,0.0,0.0
-0.3285,-0.21,0.4316,1.753226978579091,0.12173133711528711
-0.5018,-0.21,-0.5393,0.0,0.0
-0.2927,-0.22,-0.6018,0.0,0.0
0.1119,-0.01,-0.3889,0.0,0.0
-0.5439,-0.22,0.3505,0.0,0.0
0.3386,-0.22,-0.0008,0.0,0.0
-0.3107,-0.1784,0.1577,0.0,0.0
-0.4331,0.21,-0.6602,0.0,0.0
0.6392,0.0,0.2959,0.0,0.0
0.4852,-0.21,0.1038,0.0,0.0
0.4125,0.0,-0.5828,0.0,0.0
-0.2531,-0.01,-0.2727,1.5262137938194278,0.10596919173352365
-0.0118,0.21,-0.5854,0.0,0.0
0.2872,-0.21,0.4002,0.0,0.0
0.6066,-0.21,-0.0167,0.0,0.0
0.303,-0.1374,-0.1334,0.0,0.0
-0.5538,-0.0253,-0.67,0.3264871785998546,0.022668896433574327
-0.5116,0.22,-0.3184,0.0,0.0
-0.6009,-0.22,-0.4932,0.0,0.0
-0.3701,-0.01,-0.1218,0.0,0.0
-0.6267,0.01,-0.1333,0.0,0.0
-0.566,-0.0836,-0.67,0.0,0.0
-0.6014,0.21,-0.3926,0.0,0.0
-0.3779,-0.01,-0.1804,0.0,0.0
-0.5584,0.21,-0.4015,0.0,0.0
-0.6817,-0.0501,-0.67,0.0,0.0
-0.0421,-0.01,-0.6335,0.0,0.0
-0.3788,0.0,-0.2244,0.0,0.0
-0.512,0.2195,-0.67,0.0,0.0
0.5617,-0.01,-0.3914,0.0,0.0
-0.3814,-0.21,-0.2171,0.0,0.0
0.2044,-0.01,-0.44,0.0,0.0
-0.4479,0.01,-0.2811,0.0,0.0
-0.1407,0.0,-0.486,0.0,0.0
-0.6127,-0.21,0.128,0.0,0.0
0.6915,-0.1199,0.5756,0.0,0.0
0.6915,-0.1065,0.6151,0.0,0.0
0.1043,-0.21,0.3328,0.0,0.0
-0.1563,-0.1876,-0.67,0.0,0.0
-0.4155,-0.21,-0.5258,0.0,0.0
0.3404,-0.22,0.6241,0.0,0.0
-0.5239,0.22,-0.1791,0.0,0.0
-0.379,-0.21,-0.2129,0.0,0.0
0.4344,-0.01,0.6053,0.0,0.0
0.6915,-0.0833,0.1237,0.0,0.0
0.5952,0.0,-0.3145,0.0,0.0
0.6915,-0.1401,0.4515,0.0,0.0
0.1165,0.2122,-0.28,0.0,0.0
-0.4555,-0.01,-0.2908,0.0,0.0
-0.2502,0.1447,-0.28,0.0,0.0
-0.3063,0.0,-0.1424,0.5529812783333911,0.03839500032437342
0.3398,0.0,0.17,0.0,0.0
0.1124,0.22,-0.2963,0.0,0.0
0.0844,-0.1357,0.4297,0.0,0.0
-0.5912,0.0,-0.1301,0.0,0.0
0.2886,0.0,-0.1785,0.0,0.0
-0.6701,0.01,-0.6484,0.0,0.0
0.055,0.0,-0.3265,0.0,0.0
-0.4141,0.22,-0.2181,0.0,0.0
0.0844,-0.0033,0.5355,0.0,0.0
-0.2594,0.22,0.0527,0.0,0.0
-0.2989,-0.01,-0.5619,0.0,0.0
0.2093,-0.1312,0.28,0.0,0.0
-0.6148,-0.21,-0.2189,0.0,0.0
-0.6561,0.0,-0.6335,0.0,0.0
-0.0844,0.1374,-0.6475,0.0,0.0
-0.6743,-0.22,0.3856,0.0,0.0
-0.4823,-0.1651,0.3903,0.0,0.0
-0.2357,0.0,-0.5915,0.0,0.0
0.2778,-0.01,0.3594,0.5540194483856457,0.038467083306302226
-0.3974,0.01,0.1481,0.0,0.0
-0.5695,-0.22,0.042,0.0,0.0
-0.5002,0.21,0.1432,0.0,0.0
0.1889,-0.01,0.5643,0.0,0.0
-0.119,0.22,-0.5249,0.3267467211129183,0.02268691717905653
0.2417,0.0,0.4717,0.0,0.0
0.6915,-0.1299,-0.0422,0.4612935598851092,0.03202887163702855
0.6898,-0.01,0.4287,0.0,0.0
-0.2404,0.22,-0.1392,0.0,0.0
-0.5658,0.01,-0.664,0.0,0.0
0.3598,-0.22,0.0565,0.5540194483856457,0.038467083306302226
-0.4125,0.01,0.0971,0.0,0.0
-0.4323,0.0,-0.2949,0.0,0.0
0.5684,0.0,0.6677,0.0,0.0
-0.2765,0.21,-0.5628,0.0,0.0
-0.5638,0.22,0.0174,0.0,0.0
-0.231,0.1141,-0.28,0.0,0.0
0.3605,-0.01,0.0985,0.0,0.0
-0.4894,-0.21,-0.0945,0.0,0.0
0.6642,-0.22,0.4515,0.45610270962383637,0.03166845672738457
-0.1469,-0.01,-0.5192,0.0,0.0
0.6617,-0.01,0.4396,0.0,0.0
-0.6915,-0.1934,-0.133,0.0,0.0
-0.6049,-0.21,0.2931,0.0,0.0
-0.305,-0.01,0.2897,0.0,0.0
0.6725,-0.01,-0.4159,0.0,0.0
-0.5082,0.1505,0.17,0.0,0.0
0.1171,-0.1077,0.28,0.0,0.0
-0.3804,0.0,-0.3448,0.0,0.0
-0.2333,0.0,-0.4427,0.0,0.0
-0.2242,0.0,-0.4206,0.0,0.0
-0.5023,-0.01,0.5264,0.0,0.0
0.3561,-0.01,-0.4785,0.0,0.0
-0.1631,0.0,-0.5055,0.0,0.0
-0.2612,0.0,0.4908,0.0,0.0
-0.3658,0.0,-0.3984,0.0,0.0
-0.6804,0.01,0.0364,0.0,0.0
0.4326,-0.21,0.4272,0.0,0.0
-0.4537,0.1186,0.17,0.5644011489081912,0.03918791312559018
-0.4832,0.01,0.0489,0.0,0.0
-0.0434,-0.0468,-0.67,0.0,0.0
-0.3735,-0.22,0.5313,0.0,0.0
0.6915,-0.0783,0.5839,0.0,0.0
0.3197,-0.0715,-0.17,0.4443886908675641,0.030855120414621313
0.2127,-0.22,0.4878,0.3246703810084091,0.022542751215198935
-0.5037,0.0,-0.2617,0.0,0.0
-0.3353,0.21,-0.4086,0.0,0.0
0.2246,-0.22,0.6361,0.0,0.0
0.2568,-0.22,0.4433,0.0,0.0
0.0844,-0.1882,0.2937,0.0,0.0
-0.6001,-0.22,0.003,0.0,0.0
0.466,-0.0071,-0.17,0.0,0.0
-0.5325,0.22,-0.5856,0.0,0.0
0.6673,0.0,-0.2579,0.0,0.0
-0.6915,-0.1537,0.1862,0.0,0.0
-0.529,-0.21,0.2472,0.0,0.0
-0.2352,0.01,-0.4207,0.0,0.0
0.0037,0.21,-0.4637,0.0,0.0
-0.4867,0.22,0.0854,0.0,0.0
-0.5322,0.01,-0.181,0.0,0.0
-0.3107,-0.0737,0.2078,0.22753226978579089,0.015798186872727882
-0.2353,-0.01,0.453,0.0,0.0
0.0218,0.22,-0.3213,0.0,0.0
-0.303,0.0755,-0.1487,1.010641243035609,0.07017158152465117
0.4888,-0.01,-0.2523,0.0,0.0
-0.4961,-0.01,0.3015,0.0,0.0
0.0983,-0.21,0.6234,0.0,0.0
-0.1371,0.0,-0.4626,0.0,0.0
-0.4766,-0.21,-0.489,0.0,0.0
-0.3107,-0.1219,0.3773,0.0,0.0
-0.0113,0.21,-0.5022,0.0,0.0
-0.31,0.01,-0.4292,0.0,0.0
-0.6639,-0.21,0.428,0.0,0.0
-0.5176,0.22,-0.0394,0.0,0.0
-0.314,0.0,-0.0845,0.0,0.0
-0.4068,0.0,-0.4898,0.0,0.0
-0.0251,-0.21,-0.591,0.0,0.0
0.672,-0.1817,-0.17,0.0,0.0
0.4406,-0.22,0.0722,0.0,0.0
0.2653,-0.21,-0.2909,0.0,0.0
0.3058,-0.01,0.6021,0.0,0.0
-0.6193,0.0,0.2604,0.22779181229885456,0.015816207618210086
-0.4064,-0.22,-0.0733,0.0,0.0
0.448,0.0,0.1476,0.0,0.0
-0.5147,-0.21,-0.2789,0.0,0.0
-0.406,-0.01,0.1561,0.0,0.0
-0.2824,-0.01,-0.4918,0.0,0.0
-0.6915,0.0904,-0.1351,0.0,0.0
-0.4967,0.2036,-0.67,0.0,0.0
-0.3837,0.0,-0.2834,0.0,0.0
-0.1396,0.0,-0.5835,0.0,0.0
0.6251,-0.01,-0.5633,0.0,0.0
0.1024,-0.22,0.3698,0.0,0.0
0.6523,-0.22,0.3937,0.0,0.0
-0.6267,0.0889,-0.67,0.0,0.0
-0.334,0.0,-0.6428,0.0,0.0
0.4804,-0.22,0.0384,0.0,0.0
-0.6682,-0.01,-0.0362,0.0,0.0
0.4675,0.0,0.1927,0.0,0.0
-0.2181,0.01,-0.3996,0.0,0.0
0.5164,-0.1405,-0.17,0.0,0.0
0.4609,-0.22,0.2013,0.0,0.0
0.0554,-0.22,-0.5388,0.0,0.0
-0.421,-0.01,0.181,0.4181748970481365,0.029035025120919204
-0.2116,0.21,0.0757,0.0,0.0
-0.5209,0.0892,0.17,0.0,0.0
0.6915,-0.1581,-0.0842,0.32311312593002733,0.022434626742305744
-0.3107,-0.0487,0.328,0.22857043983804545,0.01587026985465668
-0.6327,0.1822,0.17,0.0,0.0
-0.4602,-0.22,0.3933,0.0,0.0
0.5444,-0.21,0.3147,0.32726580613904555,0.022722958670020926
-0.4983,-0.01,0.3703,0.0,0.0
-0.6915,0.0037,-0.2753,0.0,0.0
-0.2443,0.21,-0.2935,0.0,0.0
-0.4795,0.0,-0.1738,0.0,0.0
0.2543,-0.21,0.608,0.0,0.0
-0.0209,0.22,-0.5044,0.0,0.0
-0.128,-0.22,-0.6281,0.0,0.0
-0.0385,-0.01,-0.5145,0.0,0.0
-0.5021,0.21,-0.6605,0.0,0.0
-0.159,-0.1886,-0.2184,3.760200020763401,0.26108095639700424
-0.0913,-0.1439,-0.2338,0.0,0.0
0.4548,-0.01,0.6311,0.0,0.0
-0.3331,0.22,-0.506,0.0,0.0
0.5634,-0.22,0.5682,0.0,0.0
0.6915,-0.1837,0.0051,1.0176488908883274,0.07065814165267055
-0.5819,0.0,0.016,0.0,0.0
-0.0441,0.21,-0.5673,0.0,0.0
0.62,-0.01,-0.5627,0.0,0.0
-0.6785,0.097,0.17,0.0,0.0
0.0923,-0.22,0.4564,0.0,0.0
-0.337,0.01,0.108,0.0,0.0
-0.6915,0.1007,0.0993,0.0,0.0
-0.4185,-0.22,-0.49,0.0,0.0
-0.6838,-0.01,-0.3925,0.0,0.0
-0.0271,0.2148,-0.28,0.5807523272312005,0.040323220090968726
0.2357,-0.21,0.3744,0.0,0.0
-0.2734,0.0,-0.3217,0.0,0.0
-0.2206,-0.22,-0.3414,0.0,0.0
0.6581,0.0,-0.1755,0.0,0.0
-0.4298,-0.22,-0.0074,0.0,0.0
0.2928,-0.1428,-0.2698,0.0,0.0
-0.6016,0.22,-0.5313,0.0,0.0
-0.3916,0.0,-0.4671,0.0,0.0
-0.0533,-0.22,-0.6613,0.0,0.0
0.5718,-0.01,-0.5396,0.0,0.0
0.374,-0.21,0.324,0.0,0.0
0.5309,-0.01,-0.5103,0.553759905872582,0.03844906256082002
-0.0844,0.1193,-0.3493,0.888552444890473,0.06169462284982472
0.5428,-0.01,-0.409,0.0,0.0
0.644,0.0,0.0355,0.0,0.0
-0.3573,0.0789,-0.67,0.0,0.0
0.6915,-0.1403,0.0512,0.22753226978579089,0.015798186872727882
-0.3048,0.0,0.0504,0.8807661694985638,0.061154000485358746
-0.4125,0.0,0.1945,0.8358307090701456,0.058034008750874
0.2295,0.0,0.3639,0.0,0.0
-0.5684,-0.01,0.3886,0.0,0.0
0.2532,-0.0135,-0.67,0.0,0.0
0.6018,0.0,-0.3754,0.0,0.0
0.2576,0.0,0.3238,0.22805135481191818,0.015834228363692283
-0.4084,-0.01,0.278,0.4555836245977091,0.03163241523642017
-0.5251,0.0,-0.505,0.0,0.0
-0.2053,0.21,-0.2944,0.0,0.0
0.1985,-0.01,-0.4711,0.0,0.0
0.4187,-0.01,-0.2128,0.0,0.0
-0.6915,-0.0114,-0.1505,0.0,0.0
0.303,-0.0769,0.0515,0.0,0.0
0.0249,-0.22,-0.606,0.0,0.0
-0.3639,-0.22,0.0448,0.0,0.0
0.3048,-0.22,0.6636,0.0,0.0
-0.6453,0.01,-0.5284,0.0,0.0
0.5847,-0.22,0.2655,0.0,0.0
-0.6081,0.1011,0.17,0.0,0.0
-0.6674,0.1858,-0.67,0.0,0.0
0.2228,-0.1762,-0.2693,0.0,0.0
-0.426,-0.01,-0.6289,0.0,0.0
-0.6375,-0.01,0.0931,0.0,0.0
0.292,-0.01,-0.4892,0.0,0.0
-0.4247,-0.22,0.2765,0.0,0.0
-0.2859,0.22,-0.3732,0.0,0.0
-0.6154,0.0,0.0517,0.0,0.0
-0.0064,-0.2101,-0.67,0.0,0.0
-0.5534,0.21,0.0817,0.0,0.0
-0.6819,0.21,-0.3504,0.0,0.0
-0.4319,0.0,0.0264,0.0,0.0
-0.6422,-0.21,-0.4725,0.0,0.0
0.6302,-0.22,0.6507,0.0,0.0
0.3871,0.0,-0.6487,0.0,0.0
0.6497,-0.01,-0.0135,0.0,0.0
-0.303,0.1833,-0.2745,1.0176488908883274,0.07065814165267055
0.2655,-0.215,-0.2696,0.0,0.0
-0.2985,0.0,0.0851,0.22753226978579089,0.015798186872727882
-0.3599,0.21,-0.6618,0.0,0.0
-0.4057,-0.01,-0.6685,0.0,0.0
0.1016,0.0,-0.6473,0.0,0.0
-0.3555,0.0,-0.4157,0.0,0.0
0.0233,0.0,-0.5447,0.0,0.0
0.5034,-0.01,0.1275,0.0,0.0
-0.2963,0.21,-0.0155,0.0,0.0
-0.1012,0.01,-0.4447,0.0,0.0
-0.5698,-0.21,-0.0109,0.0,0.0
-0.3941,0.22,-0.39,0.0,0.0
-0.0153,0.22,-0.4442,0.0,0.0
0.6915,-0.0386,0.2644,0.0,0.0
-0.6868,0.0,0.0227,0.0,0.0
-0.4183,-0.22,-0.424,0.0,0.0
-0.5948,0.21,-0.149,0.0,0.0
-0.5282,0.0,0.0793,0.0,0.0
-0.4066,-0.21,-0.3576,0.0,0.0
-0.6896,-0.21,-0.3953,0.0,0.0
0.3032,-0.22,0.2959,0.2283108973249818,0.01585224910917448
-0.2733,0.0,-0.399,0.0,0.0
0.2551,0.0,0.5017,0.0,0.0
0.6592,-0.01,-0.5268,0.0,0.0
-0.6836,-0.01,-0.0266,0.0,0.0
-0.4045,0.21,0.0207,0.0,0.0
0.1603,-0.01,-0.4576,0.0,0.0
-0.1963,-0.1225,-0.67,0.0,0.0
0.6607,-0.21,0.5512,0.0,0.0
0.1452,-0.22,0.5486,0.0,0.0
-0.3405,-0.21,0.2845,0.0,0.0
0.6604,-0.21,-0.0464,0.0,0.0
-0.6915,-0.1804,-0.6139,0.0,0.0
0.2731,-0.0216,-0.2697,0.0,0.0
-0.6915,-0.0744,-0.3392,0.0,0.0
-0.2744,0.089,-0.67,0.0,0.0
-0.1861,-0.01,-0.5981,0.0,0.0
-0.1222,-0.22,-0.5502,0.0,0.0
0.1115,-0.0925,0.28,0.0,0.0
0.2038,-0.01,-0.6685,1.2527078935529639,0.08697893014438221
-0.5688,0.01,-0.5661,0.0,0.0
-0.3589,0.21,-0.4471,0.0,0.0
-0.0094,-0.01,-0.3832,0.0,0.0
-0.2367,0.0,0.417,0.0,0.0
-0.6915,-0.1616,0.2699,0.0,0.0
0.1774,-0.21,0.3587,0.0,0.0
-0.303,0.0961,0.0568,1.8449146970273729,0.12809746580263198
0.3196,-0.1729,-0.5964,0.0,0.0
0.594,-0.22,0.252,0.0,0.0
-0.0844,0.0763,-0.365,2.4586635290860643,0.17071172333590431
-0.553,-0.01,0.0202,0.0,0.0
-0.5022,0.0,-0.5846,0.0,0.0
-0.3656,0.0,0.2766,0.41791535453507284,0.029017004375437003
0.5022,0.0,0.0532,0.0,0.0
-0.1979,0.1099,-0.28,0.22753226978579089,0.015798186872727882
-0.681,-0.01,0.1444,0.0,0.0
0.0898,-0.21,0.3224,0.0,0.0
-0.2405,0.0,0.5043,0.0,0.0
-0.3404,0.0,-0.569,0.0,0.0
0.0061,0.0,-0.4453,0.0,0.0
-0.4226,0.21,-0.444,0.0,0.0
0.1673,0.0,-0.2953,0.0,0.0
-0.1041,-0.01,-0.2687,2.261272796484064,0.1570063457051758
-0.53,0.0,-0.2422,0.0,0.0
-0.5335,-0.01,-0.4547,0.0,0.0
-0.0446,-0.21,-0.4184,0.0,0.0
-0.4693,0.01,-0.5331,0.0,0.0
0.4246,-0.22,0.3731,0.0,0.0
0.303,-0.0648,0.0327,0.0,0.0
0.5464,-0.065,-0.17,0.0,0.0
0.4893,-0.22,-0.1304,0.0,0.0
-0.4785,-0.21,0.4317,0.0,0.0
-0.6524,-0.21,-0.0712,0.0,0.0
0.2445,-0.01,0.3766,0.0,0.0
0.6271,-0.21,-0.0893,0.0,0.0
0.1372,-0.22,-0.384,0.0,0.0
0.0746,0.0,-0.3944,0.0,0.0
0.448,-0.01,0.0579,0.0,0.0
-0.3826,0.21,0.0452,0.0,0.0
-0.6915,-0.1479,-0.6013,0.0,0.0
0.151,0.0,-0.2652,0.3264871785998546,0.022668896433574327
-0.6915,-0.0119,0.2926,1.395560092743191,0.09689754845778459
-0.67,0.0,0.465,0.0,0.0
-0.4671,0.21,-0.4168,0.3687926082292279,0.02560627794717278
-0.6915,0.0628,-0.3718,0.0,0.0
-0.6915,0.1073,-0.1351,0.0,0.0
-0.0331,-0.21,-0.6309,0.0,0.0
0.6746,-0.21,0.1625,0.5540194483856457,0.038467083306302226
-0.5809,-0.22,0.3924,0.0,0.0
-0.2358,0.0,-0.0192,1.577862753919092,0.10955532008448125
-0.5182,-0.22,0.5241,0.0,0.0
0.4993,0.0,-0.402,0.0,0.0
0.1838,-0.2076,-0.269,0.0,0.0
-0.2797,0.0,0.0641,0.6454476243208638,0.04481519124816489
-0.2779,0.0,0.3776,0.0,0.0
0.3196,-0.0324,-0.4613,0.0,0.0
-0.558,-0.22,-0.4321,0.0,0.0
0.569,-0.21,0.4883,0.0,0.0
-0.1136,-0.22,-0.3195,0.22779181229885456,0.015816207618210086
-0.6516,0.21,-0.6089,0.0,0.0
-0.6829,-0.1496,0.3903,2.231390801813337,0.15493155720865862
-0.087,-0.1859,-0.2147,0.7329826625601273,0.05089298800779458
-0.1847,0.0,-0.3751,0.0,0.0
0.647,-0.21,0.1892,0.22779181229885456,0.015816207618210086
-0.4451,0.0,-0.3025,0.0,0.0
-0.6503,-0.0657,0.3903,0.0,0.0
0.5024,-0.01,0.1731,0.0,0.0
-0.4517,-0.21,0.0128,0.0,0.0
-0.3647,0.0,0.3169,0.9724538879468456,0.06752012917270361
-0.6915,0.1695,-0.6695,0.0,0.0
0.3196,-0.0636,-0.3821,0.0,0.0
0.0041,-0.22,-0.4925,0.0,0.0
-0.5176,0.0,-0.4827,0.0,0.0
-0.6076,-0.22,-0.3485,0.0,0.0
0.2277,-0.21,0.4972,0.6524552721735819,0.04530175137618426
0.3433,0.0,-0.281,0.8350520815309548,0.057979946514427415
0.0299,0.0,-0.509,0.0,0.0
-0.395,-0.22,-0.2009,0.0,0.0
-0.6642,0.22,0.0804,0.0,0.0
-0.191,-0.0087,0.0987,0.0,0.0
0.5243,0.0,-0.2248,0.0,0.0
0.3273,-0.0058,-0.67,0.0,0.0
0.2388,-0.22,-0.292,0.0,0.0
-0.1013,-0.01,-0.4179,0.0,0.0
0.5634,-0.01,0.0695,0.0,0.0
0.1756,-0.22,-0.5771,0.0,0.0
-0.4944,0.1347,-0.67,0.0,0.0
0.1005,-0.22,-0.4473,0.0,0.0
-0.5412,0.0,0.3577,0.0,0.0
-0.2474,0.21,-0.2012,0.22805135481191818,0.015834228363692283
-0.3107,-0.1899,0.3065,0.3264871785998546,0.022668896433574327
-0.1959,0.0725,-0.28,2.2163373360556458,0.15388635397069106
-0.623,0.01,0.1553,0.0,0.0
-0.3001,0.0,0.3805,0.3915631380420113,0.027187298017477723
-0.1751,0.21,-0.541,0.0,0.0
-0.4945,-0.21,0.2445,0.0,0.0
-0.2472,0.01,-0.3116,0.0,0.0
-0.2771,0.0,-0.0136,1.154531612278091,0.08016228281998236
-0.0017,0.21,-0.3057,0.0,0.0
0.6148,0.0,0.1282,0.0,0.0
-0.2103,-0.175,-0.2662,4.338651071045438,0.3012443925446975
-0.107,-0.22,-0.5345,0.0,0.0
0.3613,-0.01,-0.5203,0.0,0.0
-0.0884,-0.01,-0.6262,0.0,0.0
0.0844,-0.0505,0.3262,0.3275253486521092,0.022740979415503126
-0.4537,-0.01,0.2623,0.0,0.0
-0.6102,0.0,-0.5008,0.0,0.0
-0.0706,-0.0696,-0.67,0.0,0.0
-0.5651,0.08,-0.67,0.0,0.0
-0.4822,-0.01,0.3105,0.0,0.0
0.1578,-0.01,-0.3386,0.0,0.0
-0.3132,-0.22,-0.5556,0.0,0.0
-0.2362,0.21,-0.6675,0.0,0.0
-0.4909,-0.22,-0.2267,0.0,0.0
-0.6576,0.01,-0.2038,0.0,0.0
-0.5831,-0.22,-0.437,0.0,0.0
-0.4534,0.0,-0.0818,0.0,0.0
-0.4911,-0.01,0.317,0.0,0.0
0.1968,-0.01,-0.5538,0.0,0.0
-0.4301,0.0,0.0225,0.0,0.0
0.5831,-0.1087,0.67,0.0,0.0
-0.6006,0.1648,-0.67,0.0,0.0
-0.3967,-0.01,-0.1863,0.0,0.0
-0.5918,0.01,-0.4997,0.0,0.0
-0.5143,0.22,-0.4551,0.0,0.0
-0.5056,-0.22,0.4454,0.0,0.0
-0.0911,0.137,-0.28,1.2992006090597639,0.09020704635176015
0.4699,0.0,-0.2913,0.0,0.0
-0.4249,0.0,-0.2851,0.0,0.0
-0.6864,0.21,-0.0697,0.0,0.0
-0.303,0.0811,0.0029,5.9217392808942115,0.4111625303048871
0.6915,-0.1014,-0.0225,0.0,0.0
0.0814,-0.0081,-0.17,0.0,0.0
-0.4024,-0.01,-0.6187,0.0,0.0
0.1888,0.0,0.3957,0.0,0.0
0.077,0.22,-0.5582,0.0,0.0
-0.5117,0.0,-0.0776,0.0,0.0
0.3521,-0.0177,0.67,0.0,0.0
0.0236,-0.22,-0.3236,0.0,0.0
0.1378,-0.0849,0.67,2.221787728829982,0.15426478962581724
-0.4489,0.22,-0.0892,0.0,0.0
0.2366,-0.22,0.6468,0.0,0.0
0.4922,0.0,-0.6515,0.0,0.0
-0.3728,0.0,-0.1468,0.0,0.0
-0.4284,0.0,-0.3062,0.0,0.0
-0.6915,-0.0303,0.4397,0.0,0.0
0.2858,-0.22,0.395,0.0,0.0
0.3853,-0.22,0.5696,0.0,0.0
-0.6368,-0.01,0.492,0.0,0.0
0.5876,-0.01,-0.3989,0.0,0.0
-0.1838,0.089,-0.28,2.308544139530055,0.16028852414900033
-0.214,0.21,-0.3018,0.0,0.0
0.2029,-0.22,-0.4348,0.0,0.0
-0.303,0.0329,0.0815,0.2347994601515728,0.01630276774622946
-0.6466,0.0,0.0033,0.0,0.0
-0.1486,0.21,-0.4033,0.0,0.0
-0.1483,0.0,-0.5296,0.0,0.0
-0.5707,0.22,0.0878,0.0,0.0
0.4542,-0.01,-0.3928,0.5532408208464545,0.03841302106985561
-0.5529,0.21,0.0526,0.0,0.0
0.5552,-0.21,0.3555,0.0,0.0
0.3196,-0.123,-0.6437,0.0,0.0
-0.4069,-0.01,-0.4448,0.0,0.0
-0.6487,0.22,-0.132,0.0,0.0
-0.6897,0.22,-0.0616,0.0,0.0
-0.4483,-0.22,0.2166,0.0,0.0
-0.0882,0.01,-0.4217,0.0,0.0
-0.6052,0.0,0.1471,0.0,0.0
0.2864,-0.22,0.4689,0.0,0.0
-0.3694,-0.21,-0.2248,0.0,0.0
0.4859,-0.21,0.663,0.0,0.0
0.6915,-0.0855,0.5335,0.0,0.0
0.5867,0.0,-0.2886,0.32596809357372736,0.022632854942609932
0.3257,0.0,0.6189,0.0,0.0
-0.303,0.0125,0.0394,1.017908433401391,0.07067616239815275
0.3243,-0.21,0.4914,0.0,0.0
0.6915,-0.0616,0.3304,0.0,0.0
0.5581,-0.01,0.0034,0.0,0.0
0.5885,0.0,0.3122,0.0,0.0
0.655,0.0,0.2778,0.0,0.0
-0.6658,-0.22,-0.0799,0.0,0.0
0.5744,-0.1255,-0.17,0.0,0.0
-0.2829,-0.01,-0.2334,1.3906287849949819,0.0965551542936228
-0.6915,-0.1943,0.5145,0.0,0.0
-0.4288,-0.21,-0.2176,0.0,0.0
0.4091,0.0,-0.6529,0.0,0.0
-0.3107,-0.0913,0.1477,0.4625912724504273,0.03211897536443954
-0.4363,-0.21,-0.0531,0.0,0.0
0.6616,0.0,0.0559,0.0,0.0
-0.303,0.1877,0.1513,0.0,0.0
0.3155,-0.01,-0.2834,0.8350520815309548,0.057979946514427415
-0.3752,0.1588,-0.67,0.0,0.0
0.0844,-0.1812,0.5356,0.0,0.0
0.6098,-0.0637,-0.17,0.0,0.0
-0.3107,-0.1724,0.118,0.0,0.0
-0.0651,0.21,-0.1879,0.32518946603453647,0.022578792706163336
-0.6915,0.0368,-0.4203,0.0,0.0
-0.2755,0.0,-0.5619,0.0,0.0
-0.6217,0.01,-0.1317,0.0,0.0
0.303,-0.0116,-0.0433,0.0,0.0
-0.1446,0.21,-0.4595,0.0,0.0
0.6915,-0.1802,0.2939,0.0,0.0
-0.5606,-0.01,0.1876,0.0,0.0
0.3735,-0.22,0.6327,0.0,0.0
-0.1336,-0.21,-0.6653,0.0,0.0
0.3782,-0.01,-0.5279,0.0,0.0
-0.4793,-0.21,0.168,0.0,0.0
-0.3519,-0.01,-0.0384,0.0,0.0
0.6473,-0.132,-0.17,0.0,0.0
-0.324,0.0,-0.1388,0.0,0.0
-0.208,-0.22,-0.3603,0.0,0.0
0.0914,-0.22,0.4905,0.0,0.0
0.2014,-0.01,-0.5362,0.0,0.0
0.5754,0.0,-0.4428,0.0,0.0
0.3906,-0.01,0.5282,0.0,0.0
-0.2586,0.0,-0.2436,0.22779181229885456,0.015816207618210086
-0.4902,0.0,-0.424,0.0,0.0
-0.4743,-0.21,0.3217,0.0,0.0
-0.1992,-0.01,-0.1194,1.2025815828632729,0.08349852350025348
-0.1514,0.21,-0.5709,0.0,0.0
-0.07,0.0,-0.2045,3.0939889953974458,0.2148241055102634
-0.3231,0.0,0.4197,0.0,0.0
-0.5883,-0.22,-0.3416,0.0,0.0
0.5747,-0.22,0.5917,0.0,0.0
-0.6915,-0.0568,0.5159,0.0,0.0
0.178,0.0,-0.2819,0.0,0.0
-0.3425,-0.22,-0.3969,0.0,0.0
0.3886,-0.01,-0.1151,0.0,0.0
-0.3914,0.21,0.1425,0.0,0.0
-0.6333,-0.21,-0.6229,0.0,0.0
-0.5867,0.1501,-0.67,0.0,0.0
0.0084,0.21,-0.4259,0.5542789908987091,0.03848510405178441
-0.2208,0.0,-0.2037,2.3872547323251547,0.16575361556223525
-0.4041,-0.005,0.3192,0.0,0.0
0.3454,0.0,-0.5237,0.0,0.0
-0.3482,0.0515,-0.28,0.0,0.0
-0.5919,-0.22,-0.5512,0.0,0.0
0.6229,0.0,-0.6223,0.0,0.0
0.5977,0.0,-0.189,0.0,0.0
0.1012,-0.01,-0.4506,0.0,0.0
-0.1902,-0.1558,-0.2664,4.4207357165103645,0.30694375364920096
-0.2563,0.0,-0.6071,0.0,0.0
-0.5066,0.01,0.0475,0.0,0.0
-0.303,0.1137,-0.2344,0.7890784510502821,0.05478787179801388
0.3418,0.0,-0.1626,0.32622763608679106,0.022650875688092136
0.6099,-0.01,0.4849,0.0,0.0
0.6121,-0.01,-0.1416,0.0,0.0
-0.6639,0.0,0.373,0.0,0.0
-0.4503,0.0,-0.4372,0.0,0.0
0.1448,-0.01,-0.5364,0.0,0.0
-0.2938,-0.01,0.408,0.0,0.0
0.5692,0.0,0.6368,0.0,0.0
0.3908,0.0,-0.1958,0.3264871785998546,0.022668896433574327
-0.3107,-0.1062,0.0987,0.0,0.0
0.6869,-0.01,-0.6477,0.0,0.0
0.4364,-0.098,-0.17,0.0,0.0
-0.0922,-0.01,-0.4773,0.0,0.0
-0.4925,0.22,-0.0488,0.0,0.0
0.0844,-0.1151,0.3183,0.0,0.0
-0.3221,-0.22,-0.1274,0.8360902515832094,0.05805202949635621
-0.0641,-0.0581,-0.67,0.0,0.0
0.1302,-0.0675,-0.67,0.0,0.0
-0.6915,-0.0284,-0.0786,0.0,0.0
-0.5138,0.0,0.004,0.0,0.0
-0.5248,0.0,-0.5674,0.0,0.0
-0.1164,-0.01,-0.6352,0.0,0.0
-0.5039,0.22,-0.6311,0.0,0.0
-0.5018,0.21,-0.3452,0.0,0.0
-0.599,0.01,-0.3329,0.0,0.0
-0.2183,-0.01,-0.3852,0.0,0.0
-0.614,-0.22,-0.3873,0.0,0.0
-0.2972,0.22,-0.3822,0.0,0.0
-0.2675,0.0,-0.4232,0.0,0.0
0.3448,-0.21,-0.15,0.0,0.0
-0.6337,-0.01,-0.257,0.0,0.0
0.1666,-0.22,-0.3835,0.0,0.0
-0.31,0.21,-0.3209,0.0,0.0
-0.0496,-0.22,-0.3216,0.0,0.0
-0.608,0.0,-0.6176,0.0,0.0
-0.3528,-0.22,-0.4974,0.0,0.0
-0.2648,0.0,0.109,0.7454407031871819,0.051757983790940126
-0.6915,-0.1174,0.0878,0.0,0.0
0.4041,-0.21,0.3979,0.32700626362598195,0.02270493792453873
0.5572,-0.22,0.6269,0.0,0.0
0.2383,-0.21,-0.5494,0.0,0.0
-0.2663,0.0,0.1854,0.4181748970481365,0.029035025120919204
-0.5355,0.22,0.0477,0.0,0.0
-0.6915,0.1732,-0.0193,0.0,0.0
-0.6891,-0.22,0.4258,0.0,0.0
0.4026,0.0,-0.2541,0.0,0.0
0.6915,-0.0839,0.1979,0.0,0.0
0.6915,-0.1579,-0.074,0.32311312593002733,0.022434626742305744
0.4098,0.0,0.268,0.0,0.0
0.5149,-0.21,0.5468,0.0,0.0
-0.5387,0.0,-0.5126,0.0,0.0
-0.6457,0.01,0.1488,0.0,0.0
-0.2344,-0.01,-0.5334,0.0,0.0
-0.5678,0.21,0.1323,0.0,0.0
0.0156,-0.1013,-0.2678,0.3267467211129183,0.02268691717905653
0.4019,-0.2165,0.67,0.0,0.0
-0.1533,-0.0904,-0.2251,2.0197252309928366,0.14023503857640918
-0.2224,-0.1976,-0.67,0.0,0.0
-0.6567,-0.22,-0.6241,0.0,0.0
0.2217,-0.01,0.395,0.0,0.0
0.6789,0.0,-0.2907,0.0,0.0
0.2796,-0.21,0.5329,0.0,0.0
-0.4292,0.0,0.4186,0.0,0.0
-0.1994,-0.01,-0.2592,7.2180849223102745,0.5011713484563429
-0.1304,0.1196,-0.28,1.2054365505069728,0.08369675170055767
0.3306,-0.22,0.6124,0.0,0.0
-0.5321,0.0,0.0695,0.0,0.0
0.5705,-0.0582,-0.17,0.0,0.0
0.2685,-0.21,-0.6635,0.0,0.0
0.2917,0.0,0.3282,0.0,0.0
0.6915,-0.2075,0.5948,0.0,0.0
-0.303,0.1992,-0.2638,0.0,0.0
0.2142,-0.22,0.4885,0.3246703810084091,0.022542751215198935
0.2518,-0.01,-0.4462,0.0,0.0
0.4665,0.0,0.6103,0.0,0.0
-0.1102,-0.22,-0.2862,1.0,0.06943273095988102
-0.6287,0.01,-0.4804,0.0,0.0
-0.481,0.22,-0.1807,0.0,0.0
-0.4561,-0.01,-0.3698,0.0,0.0
-0.0538,0.21,-0.5025,0.0,0.0
-0.6915,-0.2106,0.3178,0.0,0.0
-0.303,0.1545,-0.0266,0.0,0.0
0.0299,-0.01,-0.4149,0.0,0.0
-0.3185,0.0,-0.4989,0.0,0.0
-0.0844,0.0968,-0.5409,0.0,0.0
-0.6864,-0.22,0.2222,0.0,0.0
-0.4734,-0.01,0.4986,0.0,0.0
-0.628,0.193,-0.67,0.0,0.0
0.0844,-0.156,0.3437,0.0,0.0
-0.2488,0.22,-0.4164,0.0,0.0
-0.1923,-0.21,-0.3186,0.0,0.0
0.303,-0.1124,0.0028,0.41999169463958197,0.0291611703392946
-0.1161,-0.2116,-0.67,0.0,0.0
-0.6915,0.1471,-0.3108,0.0,0.0
-0.0468,-0.01,-0.31,0.0,0.0
-0.586,0.0,-0.073,0.0,0.0
0.0366,-0.01,-0.3375,0.0,0.0
-0.3831,0.0,-0.2278,0.0,0.0
0.5916,-0.01,-0.5044,0.0,0.0
0.147,0.0,0.6456,0.0,0.0
0.0868,0.0,0.3299,1.4046440807004186,0.09752827454966156
-0.0252,-0.025,-0.2675,0.8805066269855001,0.06113597973987654
-0.2229,0.0,-0.6373,0.0,0.0
-0.0161,0.22,-0.5796,0.0,0.0
-0.4468,0.0,0.0136,0.0,0.0
-0.3107,-0.0258,-0.2497,0.5550576184379001,0.038539166288231015
-0.5002,0.0,-0.3325,0.0,0.0
-0.4255,-0.21,-0.503,0.0,0.0
0.36,-0.01,-0.6637,0.0,0.0
0.6211,-0.01,-0.2167,0.0,0.0
0.2525,-0.22,-0.5324,0.0,0.0
-0.2006,0.22,-0.2961,0.0,0.0
0.6007,-0.01,0.6335,0.0,0.0
0.0478,0.22,-0.4017,0.0,0.0
-0.6162,-0.01,-0.2271,0.0,0.0
0.2169,-0.22,0.2858,0.3264871785998546,0.022668896433574327
-0.6915,-0.0703,0.0524,0.0,0.0
-0.3107,-0.1611,-0.0828,0.0,0.0
0.3183,-0.21,0.4417,0.0,0.0
0.4155,0.0,-0.4957,0.0,0.0
-0.2689,0.0,0.2412,0.7444025331349274,0.05168590080901133
-0.6039,0.0,-0.4131,0.0,0.0
-0.6328,0.22,-0.1899,0.0,0.0
0.5872,0.0,-0.3752,0.0,0.0
-0.6912,-0.0112,0.3903,0.0,0.0
0.13,-0.21,-0.4333,0.0,0.0
-0.2957,0.01,-0.5046,0.0,0.0
-0.3154,-0.22,0.0579,0.0,0.0
-0.6186,0.22,-0.4397,0.0,0.0
-0.4597,0.22,-0.6449,0.0,0.0
-0.4709,0.0,-0.3849,0.0,0.0
-0.3151,0.0,0.4227,0.0,0.0
-0.4332,0.22,-0.4512,0.0,0.0
-0.5768,-0.21,0.3587,0.0,0.0
-0.6407,-0.01,-0.0301,0.0,0.0
-0.1724,0.0,-0.6454,0.0,0.0
0.576,-0.01,-0.6542,0.0,0.0
-0.4985,0.0,-0.0777,0.0,0.0
-0.0844,0.1422,-0.3719,0.0,0.0
0.5063,-0.01,-0.5195,0.0,0.0
0.3261,0.0,0.1711,0.0,0.0
-0.5664,0.0,-0.1184,0.0,0.0
-0.2984,-0.01,-0.0706,0.5542789908987091,0.03848510405178441
0.1155,0.2104,-0.17,1.5241374537149186,0.10582502576966606
0.4942,-0.01,0.3668,0.2599750839187459,0.018050780058002775
-0.6394,0.01,-0.4509,0.0,0.0
0.1346,-0.21,0.2963,0.3267467211129183,0.02268691717905653
0.6331,-0.22,-0.1185,0.0,0.0
0.6479,0.0,0.3252,0.0,0.0
-0.1877,-0.01,-0.6219,0.22779181229885456,0.015816207618210086
0.6832,-0.22,0.2875,0.0,0.0
-0.1009,0.0,-0.3897,0.0,0.0
-0.3992,-0.21,-0.2198,0.0,0.0
-0.5441,0.21,-0.2503,0.0,0.0
-0.6134,-0.01,-0.58,0.0,0.0
0.637,-0.01,-0.2823,0.0,0.0
-0.5358,-0.01,0.2415,0.0,0.0
0.3753,-0.22,-0.1317,0.0,0.0
-0.4677,0.0,0.0051,0.0,0.0
-0.6868,0.01,-0.4378,0.0,0.0
-0.6225,-0.0468,0.3903,0.22779181229885456,0.015816207618210086
-0.0681,-0.0259,-0.2672,0.8812852545246911,0.06119004197632314
-0.303,0.0486,-0.2167,0.8805066269855002,0.06113597973987655
-0.4746,0.1236,0.17,0.0,0.0
0.0605,0.0,-0.3831,0.0,0.0
-0.6915,-0.1696,-0.3497,0.0,0.0
-0.3798,0.22,0.1004,0.0,0.0
0.5484,-0.21,0.6197,0.0,0.0
-0.6915,-0.0322,-0.5462,0.0,0.0
-0.6815,-0.199,0.5367,0.0,0.0
-0.386,-0.01,0.3011,0.0,0.0
-0.097,-0.21,-0.6027,0.0,0.0
-0.1846,-0.2114,-0.2664,0.0,0.0
0.4913,0.0,0.1315,0.0,0.0
0.3856,-0.01,0.2591,0.0,0.0
0.4555,-0.01,0.2591,0.0,0.0
-0.5392,0.21,-0.4125,0.0,0.0
0.2505,-0.1192,0.67,0.0,0.0
-0.266,0.22,-0.168,0.0,0.0
-0.4187,0.0449,0.17,1.9423123507630549,0.13486005089058525
-0.2087,0.0,0.1143,1.5688133716302732,0.1089269967586686
0.4368,-0.01,-0.1801,0.0,0.0
-0.6915,0.0545,-0.3787,0.0,0.0
0.5605,0.0,-0.5075,0.0,0.0
-0.6915,0.1409,-0.1252,0.0,0.0
-0.2789,0.21,0.147,0.0,0.0
-0.3399,0.1873,0.17,0.0,0.0
0.6333,-0.22,0.516,0.0,0.0
0.4895,-0.1087,0.67,0.0,0.0
-0.1217,0.21,-0.1894,0.32700626362598195,0.02270493792453873
0.1347,-0.01,-0.3295,0.0,0.0
0.287,0.0,-0.631,0.0,0.0
-0.1186,0.1918,-0.28,0.0,0.0
-0.6915,-0.0881,-0.6334,0.0,0.0
-0.5942,0.0,-0.0032,0.0,0.0
0.0869,-0.22,-0.5591,0.0,0.0
0.3664,0.0,-0.6148,0.0,0.0
0.4878,-0.21,-0.0783,0.0,0.0
-0.1869,-0.0584,-0.67,0.0,0.0
0.4462,0.0,0.4007,0.0,0.0
-0.091,0.22,-0.411,0.3249299235214728,0.02256077196068114
-0.6915,-0.0449,-0.116,0.0,0.0
0.1012,0.0,-0.4364,0.0,0.0
0.2852,-0.01,0.6392,0.0,0.0
0.5237,-0.22,0.5432,0.0,0.0
-0.6155,-0.22,0.087,0.0,0.0
-0.1042,0.22,-0.6594,0.0,0.0
-0.4101,-0.22,-0.6303,0.0,0.0
0.3939,-0.21,0.1511,0.0,0.0
0.2529,-0.01,0.4283,0.0,0.0
0.0457,-0.01,-0.6052,0.0,0.0
-0.6764,-0.22,-0.1224,0.0,0.0
-0.614,-0.21,-0.0896,0.0,0.0
-0.6915,-0.1051,0.1392,0.0,0.0
-0.6655,-0.21,0.3327,0.0,0.0
0.0676,-0.22,-0.6505,0.0,0.0
0.2947,-0.21,-0.5649,0.0,0.0
0.5602,0.0,-0.5818,0.0,0.0
-0.198,0.22,-0.1569,0.0,0.0
-0.4033,-0.21,-0.375,0.0,0.0
0.0602,-0.01,-0.4015,0.0,0.0
0.3289,0.0,-0.1838,0.46207218742430006,0.03208293387347514
-0.6167,-0.01,0.284,0.0,0.0
-0.6915,-0.1764,-0.5027,0.0,0.0
0.1769,-0.22,0.4863,0.0,0.0
0.0933,0.21,-0.4151,0.0,0.0
-0.6915,-0.1795,0.2215,0.0,0.0
0.303,-0.205,-0.114,0.0,0.0
-0.0177,0.22,-0.4484,0.0,0.0
-0.4725,0.0,-0.5772,0.0,0.0
0.0878,0.22,-0.4615,0.0,0.0
-0.303,0.0732,-0.0009,3.568519223448801,0.24777203516688415
-0.2845,-0.01,0.1133,0.0,0.0
-0.2178,0.21,-0.1566,0.32596809357372736,0.022632854942609932
-0.4482,0.01,-0.4273,0.0,0.0
0.4571,-0.01,-0.3228,0.0,0.0
-0.4051,0.22,-0.4479,0.0,0.0
-0.3609,-0.22,-0.4838,0.0,0.0
0.0444,-0.21,-0.3099,0.0,0.0
-0.3553,0.1707,-0.28,0.0,0.0
0.1751,-0.01,-0.4547,0.0,0.0
-0.2323,0.0,0.3989,0.0,0.0
0.2508,-0.21,-0.4628,0.0,0.0
0.5654,-0.22,-0.0365,0.0,0.0
-0.0804,0.0,-0.5877,0.0,0.0
-0.534,-0.21,-0.2737,0.0,0.0
0.4775,-0.01,0.6126,0.0,0.0
0.4695,-0.22,0.0296,0.0,0.0
0.0938,0.0,-0.1962,0.0,0.0
-0.4682,-0.01,-0.3545,0.0,0.0
0.3143,-0.01,0.0481,0.0,0.0
-0.3107,-0.1663,-0.0509,0.0,0.0
-0.4533,-0.1275,0.3903,1.1140083745717548,0.07734864375869502
-0.6915,-0.1252,0.5384,0.0,0.0
-0.6915,0.0811,0.0859,0.0,0.0
-0.5701,0.01,0.0105,0.0,0.0
-0.2065,0.1622,-0.67,0.0,0.0
0.1503,-0.21,0.4784,0.3267467211129183,0.02268691717905653
0.0634,0.22,-0.5392,0.0,0.0
0.0075,-0.1081,-0.67,0.0,0.0
0.4184,-0.01,-0.2125,0.0,0.0
0.2319,-0.21,0.4648,0.0,0.0
-0.6585,0.0,-0.3198,0.0,0.0
-0.6915,-0.1629,0.12,0.0,0.0
-0.3285,0.22,-0.6158,0.0,0.0
-0.6613,0.0,-0.5705,0.0,0.0
-0.0844,0.2037,-0.3165,0.4620721874243001,0.03208293387347515
-0.6915,0.0512,-0.2073,0.0,0.0
0.4136,-0.01,-0.2689,0.0,0.0
-0.6138,-0.22,0.4936,0.0,0.0
-0.6202,0.22,-0.0956,0.0,0.0
-0.3885,-0.21,-0.0573,0.0,0.0
-0.6673,-0.21,0.228,0.0,0.0
0.0639,-0.0807,-0.67,0.0,0.0
0.3196,-0.1887,-0.6082,0.0,0.0
0.1995,-0.01,-0.4288,0.0,0.0
-0.516,-0.0034,0.2955,0.3264871785998546,0.022668896433574327
-0.6915,0.0287,-0.0606,0.0,0.0
0.099,-0.21,0.6232,0.0,0.0
-0.5341,-0.22,0.0707,0.0,0.0
-0.2263,0.22,-0.2816,0.0,0.0
-0.5106,-0.01,0.3546,0.0,0.0
0.6205,-0.01,-0.3993,0.0,0.0
-0.6915,-0.1634,-0.2153,0.0,0.0
0.602,-0.21,0.193,0.0,0.0
-0.4835,0.2002,0.17,0.0,0.0
-0.095,0.22,-0.1827,0.3264871785998546,0.022668896433574327
-0.0844,0.172,-0.591,0.0,0.0
0.4602,-0.22,-0.0622,0.0,0.0
-0.0882,0.21,-0.2084,0.0,0.0
-0.6915,0.1891,-0.3646,0.0,0.0
-0.1526,-0.21,-0.3259,0.0,0.0
-0.4449,0.22,-0.4617,0.0,0.0
0.6859,-0.21,0.5535,0.4620721874243001,0.03208293387347515
-0.4792,-0.22,-0.4014,0.0,0.0
0.4741,0.0,0.3214,0.0,0.0
-0.3403,0.0586,-0.28,0.0,0.0
0.0509,-0.01,-0.5657,0.0,0.0
0.3678,0.0,-0.2757,0.0,0.0
-0.4416,0.01,-0.2899,0.0,0.0
-0.491,-0.21,-0.6591,0.0,0.0
-0.2793,0.22,-0.6048,0.0,0.0
-0.033,0.22,-0.6049,0.0,0.0
0.4879,0.0,-0.0852,0.0,0.0
-0.3845,-0.0661,-0.67,0.0,0.0
-0.6781,0.0,0.0151,0.0,0.0
-0.3478,0.22,-0.3222,0.0,0.0
-0.6246,-0.22,-0.1532,0.0,0.0
0.3196,-0.1779,-0.6099,0.0,0.0
0.3269,0.0,0.3075,0.0,0.0
-0.4685,0.0,0.0837,0.0,0.0
0.6539,-0.1512,0.67,0.32726580613904555,0.022722958670020926
-0.2911,-0.0992,-0.67,0.0,0.0
0.4528,-0.22,0.5854,0.0,0.0
0.5391,0.0,0.1661,0.0,0.0
-0.2589,-0.21,-0.6149,0.0,0.0
-0.4777,-0.22,0.216,0.0,0.0
-0.1738,0.21,-0.2783,0.0,0.0
-0.3933,0.01,-0.1603,0.0,0.0
-0.5189,0.0,-0.1919,0.0,0.0
0.3261,0.0,0.6347,0.0,0.0
-0.1456,0.1284,-0.28,1.7971242689552547,0.12477924586784306
0.5704,0.0,0.4308,0.0,0.0
0.6915,-0.0812,0.2685,0.0,0.0
-0.6847,0.01,0.0117,0.0,0.0
-0.4333,0.0,0.1246,0.0,0.0
-0.1412,0.21,-0.2802,0.0,0.0
-0.3791,-0.22,0.2944,0.0,0.0
-0.3159,-0.01,-0.5178,0.0,0.0
-0.0077,0.22,-0.4519,0.0,0.0
-0.5636,-0.01,-0.3581,0.0,0.0
-0.4781,0.21,-0.6627,0.0,0.0
0.4594,0.0,0.4795,0.0,0.0
0.4885,-0.01,-0.577,0.0,0.0
-0.468,0.22,-0.3725,0.0,0.0
0.4117,-0.22,0.4627,0.0,0.0
0.5733,0.0,-0.616,0.3254490085476001,0.022596813451645537
-0.6915,-0.0518,0.2166,0.0,0.0
-0.4001,-0.01,0.2842,0.22779181229885456,0.015816207618210086
-0.6566,-0.2124,0.5405,0.0,0.0
-0.5062,0.21,-0.1001,0.0,0.0
-0.6117,0.22,-0.4626,0.0,0.0
-0.6794,0.22,-0.0397,0.0,0.0
-0.0844,0.039,-0.6639,0.0,0.0
0.6117,-0.01,-0.144,0.0,0.0
0.2743,0.0,-0.4941,0.0,0.0
0.5133,-0.01,-0.2147,0.0,0.0
-0.1929,0.22,-0.267,0.0,0.0
0.3765,0.0,0.2812,0.0,0.0
0.185,-0.01,0.4561,0.0,0.0
-0.2414,0.21,-0.1989,0.22805135481191818,0.015834228363692283
-0.2595,0.0,0.1967,0.8358307090701456,0.058034008750874
0.5651,-0.1612,0.67,0.32622763608679106,0.022650875688092136
0.631,-0.216,0.67,0.0,0.0
-0.3149,0.0291,0.17,1.1095961518496729,0.07704229108549762
-0.6097,0.22,-0.3134,0.0,0.0
-0.6915,0.0149,-0.5013,0.0,0.0
-0.2606,0.22,-0.6249,0.0,0.0
-0.1945,0.22,-0.1736,0.782589888223691,0.0543373531609589
0.0594,0.22,-0.2953,1.4342665328580821,0.09958504230069656
-0.6915,-0.1588,-0.3115,0.0,0.0
0.3479,0.0,-0.188,0.23453991763850918,0.016284747000747262
-0.3512,-0.01,0.1393,0.0,0.0
-0.6915,0.1905,-0.1216,0.0,0.0
0.5521,0.0,0.4847,0.0,0.0
0.6429,-0.01,-0.6083,0.0,0.0
-0.6915,0.147,0.0296,0.462850814963491,0.032136996109921746
0.4159,-0.0404,-0.17,0.0,0.0
-0.2055,0.22,-0.2601,0.0,0.0
0.0797,0.21,-0.5361,0.0,0.0
0.4636,-0.1138,0.67,0.0,0.0
0.4998,-0.22,0.4594,0.0,0.0
0.6915,-0.1839,0.3531,0.0,0.0
0.34,-0.22,-0.0752,0.0,0.0
-0.601,-0.01,0.2687,0.0,0.0
0.328,-0.01,0.3509,0.0,0.0
-0.303,0.0031,-0.1108,0.0,0.0
-0.3667,0.0,-0.5476,0.0,0.0
-0.3136,0.22,-0.5909,0.0,0.0
0.6877,-0.1982,-0.17,0.0,0.0
-0.303,0.0864,-0.2727,0.8802470844724366,0.06111795899439435
-0.2829,0.01,-0.5254,0.0,0.0
-0.3879,0.0,-0.6058,0.0,0.0
-0.517,-0.22,0.3835,0.0,0.0
0.1191,-0.22,0.6166,0.0,0.0
0.1829,0.0,0.3162,0.0,0.0
0.5978,-0.21,0.0216,0.0,0.0
0.4742,0.0,-0.3507,0.5542789908987091,0.03848510405178441
-0.639,0.01,-0.3877,0.0,0.0
-0.6245,0.0173,0.17,0.0,0.0
-0.6915,0.0292,-0.0472,0.0,0.0
-0.2442,-0.0556,-0.266,2.5503166418659378,0.17707544925718488
-0.6915,-0.1904,0.0163,0.0,0.0
-0.5949,0.0,-0.1445,0.0,0.0
0.6733,-0.01,-0.1305,0.0,0.0
-0.4166,-0.22,0.3273,0.0,0.0
-0.4392,-0.21,0.1646,0.0,0.0
0.3783,0.0,-0.0655,0.0,0.0
-0.6915,-0.0441,0.2177,0.0,0.0
-0.634,-0.0095,0.5405,0.0,0.0
-0.3003,0.01,-0.5873,0.0,0.0
-0.6915,0.1097,-0.3063,0.0,0.0
0.1103,-0.0685,-0.67,0.0,0.0
0.1488,-0.21,0.6687,0.0,0.0
-0.5477,-0.01,-0.2554,0.0,0.0
-0.1752,0.0,-0.2329,1.4319306502405094,0.09942285559135677
0.3496,-0.01,-0.473,0.0,0.0
-0.0844,0.0581,-0.4449,0.0,0.0
0.596,-0.21,0.4466,0.0,0.0
0.303,-0.2115,-0.0469,0.0,0.0
-0.3728,0.22,-0.0135,0.0,0.0
0.0844,-0.1774,0.652,0.0,0.0
-0.6915,-0.1461,0.5242,0.0,0.0
-0.6872,-0.01,0.1001,0.0,0.0
-0.6915,-0.1186,-0.2092,0.0,0.0
0.5697,0.0,-0.3879,0.0,0.0
0.5418,0.0,0.6396,0.0,0.0
0.3592,0.0,-0.2648,0.0,0.0
-0.2431,0.01,-0.3747,0.0,0.0
-0.4208,-0.21,0.4099,0.0,0.0
0.58,-0.22,0.5948,0.0,0.0
0.4366,-0.21,-0.1322,0.0,0.0
-0.4587,0.21,-0.0621,0.0,0.0
-0.1512,-0.22,-0.3867,0.0,0.0
0.5851,0.0,-0.1247,0.0,0.0
-0.0529,-0.22,-0.3639,0.0,0.0
-0.2186,0.0,0.4422,0.0,0.0
0.2947,-0.1626,0.67,0.0,0.0
0.3136,-0.21,-0.3966,0.0,0.0
-0.2599,0.01,-0.3748,0.0,0.0
-0.4889,-0.22,0.2579,0.0,0.0
-0.6276,-0.21,-0.2042,0.0,0.0
-0.3239,0.0,0.1252,0.23557808769076372,0.016356829982676055
0.6107,-0.21,0.1748,0.0,0.0
0.5208,-0.21,0.5532,0.0,0.0
-0.3055,0.0,0.2375,0.0,0.0
-0.415,0.01,-0.4168,0.0,0.0
-0.1904,-0.01,0.4683,0.0,0.0
0.1458,-0.21,0.3828,0.0,0.0
-0.5107,-0.21,-0.0696,0.0,0.0
0.3463,-0.01,-0.103,0.0,0.0
0.0252,0.22,-0.6282,0.5535003633595182,0.03843104181533782
0.3518,0.0,0.6288,0.0,0.0
-0.6253,0.01,-0.663,0.0,0.0
-0.6125,0.01,-0.1492,0.0,0.0
0.3489,-0.01,-0.5528,0.0,0.0
-0.6915,-0.178,-0.5582,0.0,0.0
0.6654,-0.1293,-0.17,0.0,0.0
0.303,-0.0915,0.1322,0.0,0.0
0.4603,-0.21,-0.026,0.0,0.0
-0.539,0.0808,0.17,0.0,0.0
-0.5993,0.0,-0.2483,0.0,0.0
-0.4118,-0.01,-0.3931,0.0,0.0
0.3845,0.0,-0.0524,0.0,0.0
0.4408,-0.21,0.2121,0.0,0.0
-0.6279,0.0757,0.17,0.0,0.0
-0.6231,0.21,0.1483,0.0,0.0
-0.5871,0.0,-0.3363,0.0,0.0
-0.4486,-0.21,0.0189,0.0,0.0
-0.317,-0.22,-0.6366,0.0,0.0
0.6787,-0.21,0.4018,0.0,0.0
-0.6332,0.0,0.3677,0.0,0.0
-0.2247,0.21,-0.3619,0.0,0.0
-0.2225,-0.0206,-0.2661,4.341506038689138,0.3014426207450017
-0.6858,0.22,-0.1712,0.0,0.0
-0.4276,-0.22,0.2896,0.3254490085476001,0.022596813451645537
-0.6179,-0.21,0.1891,0.0,0.0
0.1486,-0.22,-0.6481,0.0,0.0
-0.2227,0.22,0.13,0.0,0.0
-0.3533,-0.22,-0.2185,0.0,0.0
-0.2554,0.21,0.1277,0.0,0.0
0.5796,-0.01,-0.4951,0.0,0.0
0.1284,-0.0623,-0.67,0.0,0.0
-0.3107,-0.0779,0.2152,0.22753226978579089,0.015798186872727882
-0.5791,0.0,-0.6428,0.0,0.0
-0.5953,-0.01,0.1652,0.0,0.0
0.3196,-0.0531,-0.4814,0.0,0.0
-0.6151,0.22,-0.4922,0.0,0.0
-0.6841,-0.22,0.3588,0.0,0.0
-0.2963,-0.21,-0.5423,0.0,0.0
0.303,-0.0993,-0.0556,0.22779181229885456,0.015816207618210086
-0.5307,0.21,-0.3797,0.0,0.0
-0.5799,-0.22,0.3345,0.0,0.0
-0.0564,0.21,-0.4831,0.0,0.0
-0.375,0.22,-0.3634,0.0,0.0
-0.5556,0.0,-0.5791,0.0,0.0
-0.5205,0.0,-0.3308,0.0,0.0
0.5696,0.0,0.5782,0.0,0.0
-0.4177,0.21,-0.1306,0.0,0.0
0.3196,-0.0145,-0.5914,0.0,0.0
-0.6915,0.0922,-0.5581,0.0,0.0
0.24,-0.21,-0.588,0.0,0.0
-0.3107,-0.1214,0.0935,0.0,0.0
0.2019,0.0,0.5642,0.0,0.0
-0.6354,0.01,-0.6034,0.0,0.0
-0.2913,0.21,-0.4272,0.0,0.0
-0.6062,-0.21,-0.2808,0.0,0.0
0.5703,-0.21,0.1152,0.0,0.0
0.3424,0.0,0.2947,0.0,0.0
-0.2546,0.0243,-0.28,2.2435546942589197,0.15577612948025768
-0.3332,-0.21,0.0812,1.8963387202823823,0.13166797617417172
-0.5416,0.0,-0.2488,0.0,0.0
0.1721,-0.083,0.28,0.0,0.0
-0.5631,0.01,-0.4114,0.0,0.0
-0.398,-0.21,0.2841,0.0,0.0
0.1274,-0.1466,0.67,0.32726580613904555,0.022722958670020926
0.599,0.0,0.2051,0.0,0.0
0.1548,-0.22,-0.514,0.0,0.0
-0.6684,0.0,-0.2437,0.0,0.0
0.22,-0.01,-0.4021,0.0,0.0
-0.1936,0.0,-0.449,0.0,0.0
-0.6915,-0.1137,0.0113,0.0,0.0
0.459,-0.21,0.6699,0.0,0.0
0.6441,-0.22,0.151,0.0,0.0
0.0844,-0.1594,0.5929,0.32622763608679106,0.022650875688092136
0.4679,-0.22,0.3957,0.32726580613904555,0.022722958670020926
0.6567,-0.22,0.4724,0.0,0.0
-0.2459,0.01,-0.3089,0.0,0.0
0.497,-0.01,-0.3123,0.0,0.0
-0.3975,-0.01,-0.3222,0.0,0.0
-0.2269,-0.22,-0.3219,0.0,0.0
-0.6712,0.01,-0.4181,0.0,0.0
-0.6497,-0.21,0.2868,0.0,0.0
-0.2674,-0.01,-0.3471,0.0,0.0
-0.1478,-0.0381,-0.2667,9.062999619337646,0.6292688142589749
-0.1489,-0.21,-0.569,0.0,0.0
-0.6558,0.0,0.338,0.0,0.0
-0.3673,0.01,-0.6461,0.0,0.0
-0.4661,0.0,-0.4033,0.0,0.0
-0.3265,-0.0181,-0.67,0.462850814963491,0.032136996109921746
0.3768,-0.01,-0.456,0.0,0.0
0.6915,-0.2088,0.0586,0.0,0.0
0.0093,0.22,-0.669,0.3275253486521092,0.022740979415503126
-0.4342,-0.01,-0.431,0.0,0.0
0.1717,-0.0914,-0.67,0.0,0.0
-0.3374,0.0,-0.605,0.0,0.0
-0.6458,-0.21,-0.5801,0.0,0.0
-0.5102,0.0,-0.3558,0.0,0.0
0.4898,-0.01,0.628,0.0,0.0
0.6384,-0.01,0.5804,0.0,0.0
-0.2959,0.21,-0.341,0.0,0.0
-0.6915,-0.0255,0.2948,0.6514171021213274,0.04522966839425546
-0.1052,0.01,-0.5398,0.0,0.0
-0.5907,-0.01,-0.0423,0.0,0.0
-0.5917,-0.21,-0.621,0.0,0.0
0.3688,-0.1987,-0.17,0.0,0.0
0.0964,-0.01,-0.4285,0.0,0.0
0.3196,-0.0311,-0.5515,0.0,0.0
0.6131,-0.01,-0.4797,0.0,0.0
0.3806,0.0,0.2005,0.0,0.0
-0.1178,0.22,-0.2254,0.0,0.0
0.254,-0.0908,-0.2695,0.0,0.0
-0.332,-0.22,-0.5713,0.0,0.0
-0.4842,0.1022,0.17,0.0,0.0
-0.6629,-0.22,0.2396,0.0,0.0
0.4328,-0.01,-0.1006,0.0,0.0
-0.2312,-0.01,-0.4591,0.0,0.0
-0.6125,0.0,0.0326,0.0,0.0
0.265,-0.21,-0.4058,0.0,0.0
0.3346,-0.22,0.6113,0.0,0.0
-0.5015,-0.22,0.0861,0.0,0.0
0.5564,0.0,-0.0689,0.0,0.0
-0.2636,-0.0202,-0.67,0.462850814963491,0.032136996109921746
-0.6392,0.0,-0.237,0.0,0.0
0.1533,0.0,-0.1841,0.0,0.0
0.1179,0.0,-0.3627,0.0,0.0
0.336,0.0,0.6554,0.0,0.0
0.3746,-0.21,0.5894,0.0,0.0
0.2421,-0.01,-0.2357,0.4171367269958819,0.028962942138990404
0.6895,0.0,-0.4438,0.0,0.0
0.3076,-0.22,0.1287,0.0,0.0
-0.4529,0.01,-0.1164,0.0,0.0
0.4874,-0.22,0.2588,0.5542789908987091,0.03848510405178441
-0.6915,-0.1,-0.0631,0.0,0.0
0.6759,0.0,-0.1181,0.0,0.0
0.6915,-0.1442,0.4884,0.0,0.0
0.5158,-0.01,0.3056,0.0,0.0
0.5542,-0.21,0.1261,0.0,0.0
0.0605,-0.01,-0.4776,0.0,0.0
0.0844,-0.0612,0.4972,0.0,0.0
-0.6915,0.1086,-0.4567,0.0,0.0
-0.178,0.0,-0.4069,0.0,0.0
0.4869,-0.01,-0.3498,0.3264871785998546,0.022668896433574327
-0.3453,0.21,-0.5848,0.0,0.0
-0.303,0.0439,0.1688,1.2002457002457,0.08333633679091369
-0.275,0.0976,-0.28,0.8810257120116274,0.06117202123084094
0.5928,0.0,-0.4227,0.0,0.0
-0.196,0.0,-0.5277,0.0,0.0
-0.6915,0.05,-0.6121,0.0,0.0
-0.2293,-0.01,-0.3713,0.0,0.0
0.6915,-0.072,0.4017,0.0,0.0
-0.4259,0.0,-0.3954,0.0,0.0
-0.5197,-0.22,0.3361,0.0,0.0
-0.5727,-0.01,-0.1616,0.0,0.0
-0.5416,-0.21,0.0146,0.0,0.0
-0.6197,0.0,-0.0148,0.0,0.0
0.0871,-0.21,-0.5018,0.0,0.0
-0.219,0.0,-0.0794,3.0054157871059277,0.20867422576870492
-0.3103,-0.22,-0.3651,0.0,0.0
-0.3047,0.21,-0.401,0.0,0.0
-0.597,-0.22,-0.2095,0.0,0.0
0.5312,0.0,-0.3199,0.0,0.0
-0.1992,0.0,0.4293,0.22779181229885456,0.015816207618210086
-0.6915,0.0244,-0.2111,0.0,0.0
-0.6294,-0.0825,0.3903,0.0,0.0
0.2682,-0.21,-0.4472,0.0,0.0
-0.1857,-0.01,-0.3495,0.0,0.0
-0.5615,0.0,-0.0151,0.0,0.0
0.6915,-0.1235,0.4879,0.0,0.0
-0.6915,-0.1766,-0.4733,0.0,0.0
-0.1191,-0.1825,-0.2669,9.997785237221857,0.6941735325706954
0.1727,0.0,0.4066,0.0,0.0
0.1749,-0.01,0.555,0.0,0.0
-0.3194,-0.179,0.3903,0.22779181229885456,0.015816207618210086
-0.4506,0.01,-0.1638,0.0,0.0
0.3196,-0.0907,-0.621,0.0,0.0
