x,y,z,SaliencyScore,NormalizedScore
-0.4105,0.0537,-0.3012,0.30217391304347824,0.021224344373894564
-0.6413,-0.1405,-0.2421,0.0,0.0
0.3858,0.0008,-0.3015,0.0,0.0
0.155,-0.0008,-0.5814,0.0,0.0
0.4197,0.0838,0.4576,0.8618659420289856,0.0605364618458054
-0.2678,-0.2324,0.6335,0.0,0.0
0.1722,-0.0327,-0.7062,0.0,0.0
0.25,0.005,-0.5519,0.0,0.0
-0.4937,0.0737,-0.1352,0.0,0.0
-0.581,0.0008,-0.0255,0.0,0.0
0.6628,0.171,0.3021,0.0,0.0
-0.6676,-0.1695,0.3885,0.0,0.0
0.6147,0.0008,-0.1308,0.0,0.0
0.2703,0.0262,-0.4425,0.0,0.0
-0.645,0.0047,-0.2328,0.0,0.0
0.6354,-0.0297,0.4746,0.0,0.0
0.4919,-0.2029,0.2682,3.996376811594202,0.2807008614437134
-0.4716,-0.0029,0.3413,0.0,0.0
0.5855,0.0008,-0.0449,0.0,0.0
-0.3323,0.0008,0.8127,0.0,0.0
-0.6424,0.1515,0.2653,0.0,0.0
0.3737,-0.2319,0.5275,5.38677536231884,0.3783608393032103
0.2987,0.0177,-0.4862,0.0,0.0
-0.2162,0.0097,0.6676,0.0,0.0
-0.7491,0.005,-0.5498,0.0,0.0
-0.5423,0.2235,0.6359,0.0,0.0
0.786,0.0098,-0.4647,0.0,0.0
0.6018,-0.0491,-0.3246,0.0,0.0
-0.3787,-0.1901,0.5207,0.0,0.0
0.7844,0.0923,-0.0544,0.0,0.0
0.3908,0.0746,-0.0644,0.6355072463768116,0.04463729020600847
0.5275,0.1884,0.3915,0.0,0.0
-0.2674,0.2358,0.8747,0.6086050724637682,0.04274771278423189
-0.4389,-0.1156,-0.2006,0.0,0.0
-0.56,-0.1493,-0.3962,0.0,0.0
0.7085,-0.11,0.1279,0.0,0.0
0.491,0.1287,0.1375,3.1610507246376813,0.22202852816551935
0.6912,0.2107,0.6166,0.0,0.0
-0.8855,0.0891,-0.0726,0.0,0.0
0.1744,0.2776,0.8505,0.2614130434782609,0.01836134828029368
0.1869,0.0008,0.6863,0.0,0.0
-0.3621,0.0799,0.82,0.0,0.0
-0.6219,-0.2788,-0.2864,0.0,0.0
0.5142,-0.0092,0.53,0.0,0.0
0.2687,0.2739,0.9755,0.0,0.0
-0.3795,0.0203,0.8075,0.0,0.0
0.5277,0.0008,0.4039,0.0,0.0
0.5842,-0.0124,-0.6485,0.0,0.0
0.4643,0.2458,0.687,2.953170289855072,0.2074272480881548
-0.3585,0.0383,-0.3337,0.0,0.0
0.3077,-0.0307,-0.752,0.0,0.0
0.6351,0.0028,-0.5048,0.0,0.0
-0.0501,0.2669,0.9356,0.0,0.0
0.6699,0.0379,0.3789,0.27201086956521736,0.019105727264629908
-0.5872,0.1092,0.0475,0.0,0.0
0.0482,0.0008,0.8982,0.0,0.0
-0.5098,-0.0139,-0.5995,0.0,0.0
0.4063,-0.0651,-0.8899,0.0,0.0
-0.36,-0.0481,-0.8506,0.0,0.0
0.8114,0.1565,0.367,0.0,0.0
0.2072,-0.0294,-0.6652,0.0,0.0
-0.3502,0.0458,0.5552,0.5342391304347827,0.03752433546679561
0.0081,0.0498,0.9356,0.0,0.0
0.0541,-0.0292,-0.4516,0.0,0.0
-0.1327,-0.1072,0.9211,0.0,0.0
0.5307,0.2218,0.6798,0.0,0.0
0.5209,0.0008,-0.3884,0.0,0.0
0.4674,0.2411,0.726,5.67019927536232,0.39826820547404856
-0.6425,0.2079,0.6585,0.0,0.0
0.591,0.0998,-0.064,0.0,0.0
0.7001,0.1515,0.2392,0.0,0.0
0.0801,-0.0053,-0.6049,0.0,0.0
0.5056,0.1107,0.1816,0.8315217391304347,0.05840512030945806
-0.6249,-0.0118,-0.6449,0.0,0.0
0.4013,-0.1297,0.7909,0.0,0.0
0.5548,0.1819,0.4217,0.0,0.0
0.6921,0.1383,0.2709,0.0,0.0
0.8458,0.1276,0.1457,0.0,0.0
0.3891,0.1032,-0.0042,0.25570652173913044,0.017960528827189556
-0.5067,-0.2094,0.1693,0.0,0.0
-0.5467,0.1016,-0.0549,0.5057065217391304,0.035520238201274985
0.1743,-0.0037,-0.4034,0.0,0.0
-0.2225,0.2346,0.6718,4.0387681159420294,0.28367837738105844
-0.2918,0.2305,0.4709,0.0,0.0
0.6604,-0.0092,0.1907,0.0,0.0
-0.5809,0.0146,-0.4955,0.0,0.0
0.151,-0.0649,0.6983,0.0,0.0
-0.2246,0.0222,-0.4632,0.0,0.0
-0.352,0.0281,-0.3394,0.0,0.0
-0.1338,0.1172,0.9208,0.0,0.0
0.0295,0.2556,0.7374,3.4391304347826086,0.2415605237374187
-0.8939,0.0967,0.0277,0.3357789855072464,0.02358472559772996
-0.7018,-0.1424,-0.0077,0.0,0.0
0.5234,-0.0092,0.3738,0.0,0.0
0.5542,0.1184,0.0315,0.0,0.0
-0.4492,0.0052,0.3985,0.0,0.0
0.7042,-0.232,0.2064,0.0,0.0
0.3465,-0.1481,-0.465,0.0,0.0
0.1231,0.2758,0.986,0.0,0.0
-0.2545,-0.2821,-0.5598,0.0,0.0
0.3696,0.2335,0.5326,0.0,0.0
0.1716,-0.0686,-0.9098,0.0,0.0
0.479,0.007,0.7189,0.0,0.0
0.45,0.0008,0.6708,0.0,0.0
-0.6671,-0.2516,0.39,0.0,0.0
0.3905,-0.1546,-0.2839,0.0,0.0
0.0502,0.2628,0.8379,0.0,0.0
-0.5331,-0.0092,0.4807,0.0,0.0
-0.2932,-0.1714,0.6128,0.0,0.0
-0.229,-0.1148,-0.5042,0.0,0.0
0.0729,-0.0706,-0.9211,0.0,0.0
0.3896,0.0766,0.5054,0.0,0.0
0.8744,0.0521,-0.2253,0.0,0.0
0.1655,-0.0096,-0.5636,0.0,0.0
-0.2726,0.0504,-0.2014,0.0,0.0
-0.2203,-0.0386,-0.4851,0.0,0.0
-0.4613,0.1417,0.3671,0.0,0.0
-0.5617,0.0636,-0.2501,0.0,0.0
0.0993,0.2788,1.0032,0.0,0.0
0.6945,0.0148,-0.0564,0.0,0.0
0.6526,-0.0092,0.2458,0.0,0.0
-0.2299,-0.0304,-0.5061,0.0,0.0
0.6215,0.1446,0.5032,0.0,0.0
0.5057,0.0199,0.18,2.1762681159420287,0.15285854254412193
-0.4994,0.0872,-0.0658,0.6126811594202899,0.04303401239359198
-0.3604,-0.0365,-0.7851,0.0,0.0
-0.5554,0.0008,0.4138,0.0,0.0
-0.2963,0.1562,0.2401,0.8618659420289856,0.0605364618458054
-0.7787,0.0909,-0.0626,0.0,0.0
-0.3741,0.0128,-0.5116,0.0,0.0
-0.5965,0.1244,0.0627,0.0,0.0
-0.6528,0.1439,0.163,0.0,0.0
0.6041,0.2146,0.5266,0.0,0.0
-0.5245,-0.0092,-0.4452,0.0,0.0
-0.5786,-0.0023,-0.3669,0.0,0.0
0.1503,0.0129,-0.511,0.0,0.0
0.1272,0.0087,-0.3571,0.0,0.0
0.6328,0.1756,0.4723,0.0,0.0
0.4905,0.0307,-0.4194,0.0,0.0
-0.0864,0.1299,0.9295,0.0,0.0
0.3513,0.2436,0.7392,0.2548913043478261,0.017903268905317536
0.4921,0.0008,0.3896,0.0,0.0
-0.5576,0.2058,0.4812,0.0,0.0
0.0797,-0.0815,0.9305,0.0,0.0
0.5297,0.1768,0.3952,0.0,0.0
-0.4224,0.0306,-0.3565,0.0,0.0
-0.0594,-0.1567,0.7221,0.0,0.0
0.5501,0.0765,-0.1207,0.0,0.0
-0.4168,-0.1001,0.7781,0.0,0.0
0.0358,0.2591,0.8186,0.0,0.0
0.1578,0.2425,0.7336,0.34393115942028984,0.024157324816450138
-0.2427,-0.2524,-0.534,0.0,0.0
-0.5421,0.0101,-0.4631,0.0,0.0
-0.5082,-0.2293,0.0751,0.0,0.0
0.669,-0.0574,0.3816,0.0,0.0
0.5066,-0.1825,0.0492,12.57391304347826,0.8831770349540011
0.8946,0.1079,0.0337,0.0,0.0
-0.5355,0.0008,-0.1253,0.0,0.0
-0.3162,-0.1725,0.8491,0.0,0.0
-0.0823,-0.0871,-1.0142,0.0,0.0
-0.0165,-0.0066,-0.4141,0.25244565217391307,0.017731489139701486
0.4622,0.2424,0.7327,4.442391304347826,0.3120284009212485
0.4019,0.1969,0.493,0.25407608695652173,0.01784600898344552
0.484,0.0468,0.3,1.8282608695652176,0.12841491811831174
0.6349,0.1817,0.4666,0.0,0.0
-0.6635,-0.0952,0.4013,0.0,0.0
0.1848,0.1583,0.9072,0.0,0.0
-0.2716,-0.0854,-0.5972,0.0,0.0
-0.2353,0.2428,0.5169,0.0,0.0
0.2804,-0.0464,-0.8414,0.0,0.0
0.657,0.1548,0.282,0.0,0.0
-0.2152,-0.0247,-0.7181,0.0,0.0
0.4851,0.0249,0.2958,1.7351449275362318,0.12187456259781902
0.3491,0.2465,0.8773,0.0,0.0
-0.0516,-0.0077,-0.5538,0.0,0.0
0.46,-0.0245,-0.7168,0.0,0.0
-0.5419,-0.1157,-0.4222,0.0,0.0
-0.0833,-0.244,0.93,0.0,0.0
-0.4607,0.0566,-0.1316,0.0,0.0
-0.4151,0.2499,0.897,0.0,0.0
0.5773,0.1768,0.3324,0.7196557971014493,0.05054778658590897
0.2797,0.2565,0.8053,0.0,0.0
0.1583,-0.0111,-0.4806,0.0,0.0
-0.6138,0.0008,-0.2716,0.0,0.0
-0.1595,-0.1947,0.6952,0.0,0.0
0.3568,0.0008,0.7078,0.0,0.0
0.6198,0.1203,0.1048,0.0,0.0
0.2742,-0.0738,-0.9389,0.0,0.0
0.1394,0.26,0.8235,0.0,0.0
-0.5843,-0.1585,-0.3576,0.0,0.0
0.1131,-0.0388,0.9251,0.0,0.0
-0.2549,-0.1298,-0.5606,0.0,0.0
0.1548,-0.2049,0.6972,0.35615942028985503,0.025016223644530402
-0.5183,-0.0092,-0.1184,0.0,0.0
0.3168,-0.1205,-0.409,0.0,0.0
-0.6965,0.0703,0.2651,0.0,0.0
0.484,0.0134,-0.4917,0.0,0.0
0.4564,-0.1639,-0.1615,3.136141304347826,0.22027891944165212
-0.4427,-0.0243,-0.7157,0.0,0.0
-0.4163,-0.0055,0.7785,0.0,0.0
0.5008,-0.0068,-0.6166,0.0,0.0
-0.6637,0.1513,0.2644,0.0,0.0
0.3146,0.2238,0.5937,0.0,0.0
-0.5368,-0.0092,0.4728,0.0,0.0
0.7468,0.1283,0.1494,0.0,0.0
-0.6469,0.049,0.4482,0.0,0.0
0.4241,-0.0413,-0.8125,0.0,0.0
-0.407,-0.2341,-0.2587,0.0,0.0
-0.3674,0.2262,0.6493,0.0,0.0
0.689,-0.0035,-0.0848,0.0,0.0
-0.0664,-0.0139,-0.6491,0.0,0.0
-0.8129,0.1501,0.273,0.0,0.0
-0.3315,0.2579,0.9419,0.0,0.0
-0.4643,-0.0223,-0.7045,0.0,0.0
0.3368,-0.1543,-0.3507,0.0,0.0
0.3749,0.1084,0.0151,0.25570652173913044,0.017960528827189556
0.5011,0.0008,0.489,0.0,0.0
0.4628,-0.2543,0.3659,4.6294384057971,0.3251663718841058
-0.2271,-0.0399,-0.8045,0.0,0.0
0.1931,0.0021,-0.5666,0.0,0.0
0.4701,0.1584,0.3454,0.0,0.0
0.5754,-0.0998,0.5921,0.0,0.0
0.5398,0.1975,0.4385,0.0,0.0
-0.624,0.0486,-0.2643,0.0,0.0
0.4926,0.0427,0.2644,2.0921195652173914,0.14694804616422147
-0.866,0.0778,-0.1367,0.0,0.0
-0.3755,0.2478,0.7607,0.865126811594203,0.06076550153329347
-0.6159,-0.2455,-0.299,0.0,0.0
0.3402,-0.0092,-0.3795,0.0,0.0
-0.4839,-0.0092,0.3371,0.0,0.0
-0.0523,0.2799,1.0093,0.0,0.0
0.2608,0.0008,0.65,0.0,0.0
-0.4151,0.0905,-0.0515,0.0,0.0
-0.3802,0.2125,0.4503,0.0,0.0
-0.232,0.1219,0.6569,0.0,0.0
0.6863,-0.2854,0.3176,0.0,0.0
-0.7157,0.0102,-0.4624,0.0,0.0
-0.0461,0.2518,0.781,0.0,0.0
0.2715,0.0049,-0.3244,0.0,0.0
0.654,-0.0933,0.4266,0.5057065217391304,0.035520238201274985
-0.4839,-0.1639,0.3006,0.0,0.0
0.2412,-0.0456,-0.7793,0.0,0.0
0.5201,0.1068,0.0351,0.7793478260869566,0.05474048530964894
0.5261,0.0875,-0.0639,0.0,0.0
-0.4535,0.0253,-0.4472,0.0,0.0
0.5371,-0.2708,-0.4287,0.0,0.0
0.0888,0.2716,0.8198,0.0,0.0
-0.611,-0.0683,-0.3086,0.0,0.0
0.0475,-0.0728,-0.9912,0.0,0.0
-0.3819,-0.0427,-0.5853,0.0,0.0
0.7067,-0.0919,0.0532,0.0,0.0
-0.3669,-0.1097,-0.3157,0.0,0.0
0.3151,-0.2655,-0.4058,0.0,0.0
-0.4099,0.0795,0.7838,0.0,0.0
-0.0069,-0.2749,0.9357,0.0,0.0
-0.4733,0.0885,-0.122,0.7760869565217392,0.05451144562216086
0.5365,0.2004,0.4537,0.0,0.0
-0.4389,0.0008,0.6317,0.0,0.0
-0.3336,0.0331,0.5742,1.0668478260869565,0.07493415108984718
-0.6477,0.0008,-0.1448,0.0,0.0
0.4981,0.0124,-0.0162,0.0,0.0
-0.0656,-0.2328,0.9322,0.0,0.0
0.5976,0.1612,0.2518,0.0,0.0
-0.2462,0.2396,0.6475,5.36784420289855,0.37703113667307125
0.5289,0.2036,0.47,0.0,0.0
0.5369,0.1356,0.1203,0.0,0.0
-0.3357,0.2631,0.7761,0.9451992753623188,0.06638969830383387
0.2151,-0.0073,-0.6149,0.0,0.0
-0.6739,0.1192,0.036,0.0,0.0
-0.3661,-0.0092,0.7785,0.0,0.0
-0.5061,0.0376,0.168,0.0,0.0
-0.5177,0.199,0.5096,0.27445652173913043,0.01927750703024596
-0.511,-0.0092,0.4795,0.0,0.0
-0.2424,-0.0011,-0.5196,0.0,0.0
0.2752,0.2618,0.7693,0.26875,0.018876687577141837
0.0591,-0.019,-0.4137,0.0,0.0
-0.667,0.0008,0.3454,0.0,0.0
-0.0755,-0.0547,-0.8305,0.0,0.0
0.547,-0.0092,0.5997,0.6126811594202899,0.04303401239359198
0.5474,0.1526,0.2707,0.0,0.0
-0.4165,0.2383,0.6483,0.0,0.0
0.3086,-0.0435,-0.8245,0.0,0.0
0.6835,0.114,0.0722,0.0,0.0
0.4802,0.1277,0.087,0.0,0.0
0.6665,0.0008,0.2532,0.0,0.0
-0.3022,0.248,0.6982,0.7956521739130435,0.05588568374708929
-0.204,-0.2436,0.9008,0.0,0.0
0.6195,0.2129,0.6295,0.0,0.0
-0.0591,-0.0249,-0.6424,0.0,0.0
0.2061,0.254,0.5584,0.5432065217391304,0.0381541946073878
-0.7147,0.0874,-0.0826,0.0,0.0
0.5439,-0.1885,-0.4187,0.0,0.0
0.4673,0.0891,0.3537,0.2548913043478261,0.017903268905317536
-0.7246,0.0439,-0.3292,0.0,0.0
-0.4895,-0.2524,0.2785,0.0,0.0
0.516,-0.0373,-0.7896,0.0,0.0
0.5728,-0.2075,-0.3762,0.0,0.0
-0.5074,-0.1236,-0.4664,0.0,0.0
-0.5061,0.1037,-0.044,0.0,0.0
0.2475,0.2457,0.7497,0.0,0.0
-0.1327,-0.0309,-0.6731,0.0,0.0
-0.5161,0.0321,-0.3488,0.0,0.0
-0.4535,-0.182,-0.5244,0.0,0.0
-0.4274,-0.0642,-0.2227,0.0,0.0
0.5224,0.1224,0.0525,0.7785326086956522,0.05468322538777692
0.2429,-0.0323,-0.7038,0.0,0.0
-0.6639,0.1456,0.1716,0.0,0.0
-0.1414,-0.0224,-0.6295,0.0,0.0
0.4008,-0.0612,-0.8678,0.0,0.0
-0.3583,-0.0092,-0.421,0.0,0.0
-0.2611,-0.0889,-0.5742,0.0,0.0
-0.1232,0.2657,0.8528,1.4981884057971013,0.10523101197368587
-0.4101,0.0008,-0.3608,0.0,0.0
0.0464,0.251,0.7769,0.6077898550724637,0.04269045286235987
-0.4066,0.2339,0.8058,6.7019927536231885,0.47074017992339895
0.4847,0.1028,0.2973,0.6167572463768116,0.04332031200295207
0.4788,-0.2115,0.7191,0.0,0.0
-0.5511,0.1868,0.3834,0.0,0.0
0.7819,0.0578,-0.2504,0.0,0.0
-0.6916,0.0174,-0.4795,0.0,0.0
-0.6004,-0.0725,0.5493,0.0,0.0
-0.2873,-0.2001,0.8649,0.0,0.0
-0.4823,0.1947,0.7153,0.0,0.0
0.4523,-0.1855,0.746,0.0,0.0
-0.45,-0.0422,-0.1761,0.0,0.0
-0.5677,-0.0092,-0.0383,0.0,0.0
0.7653,0.1629,0.4033,0.5220108695652174,0.03666543663871534
0.508,0.0747,0.069,0.7801630434782609,0.05479774523152095
0.1925,-0.0024,-0.5266,0.0,0.0
-0.6307,0.0946,0.4875,0.0,0.0
0.3369,0.1959,0.3416,1.3029891304347827,0.09152044179210832
0.1512,0.1779,0.6976,0.0,0.0
0.0306,-0.0396,-0.7454,0.0,0.0
-0.7018,0.0703,-0.1794,0.25244565217391307,0.017731489139701486
-0.225,0.1164,0.6617,0.0,0.0
-0.4726,-0.2447,0.7257,0.0,0.0
-0.026,0.2777,0.9967,0.0,0.0
-0.3815,0.2554,0.8,7.348097826086957,0.5161218491137437
-0.5088,-0.1283,0.0988,0.0,0.0
-0.2545,-0.0092,0.7435,0.0,0.0
0.4236,0.0008,-0.329,0.0,0.0
0.3626,0.241,0.846,0.0,0.0
-0.5771,-0.0604,-0.3695,0.0,0.0
0.2748,0.0805,0.8712,0.891213768115942,0.06259781903319803
-0.4081,0.0093,-0.5296,0.0,0.0
0.0914,-0.0092,0.9184,0.0,0.0
-0.7902,0.0701,-0.1231,0.0,0.0
0.3106,-0.0142,0.5973,0.0,0.0
-0.033,0.2315,0.9348,0.0,0.0
0.5551,0.1159,0.0187,0.0,0.0
0.2775,0.1893,0.6248,0.0,0.0
-0.5016,-0.0196,-0.6319,0.0,0.0
0.3923,0.0667,-0.1403,0.0,0.0
0.3992,-0.0907,0.7925,0.0,0.0
0.5095,0.2258,0.7599,0.0,0.0
-0.5038,-0.0306,0.1978,0.0,0.0
-0.4338,-0.0472,0.431,0.0,0.0
0.5445,0.0008,0.5344,0.0,0.0
-0.6894,0.1851,0.5293,0.0,0.0
0.3721,-0.054,-0.8266,0.0,0.0
-0.1659,0.0058,-0.3213,0.0,0.0
0.2339,-0.1528,0.8896,0.0,0.0
-0.5992,0.0078,-0.4763,0.0,0.0
-0.6833,0.1633,0.4055,0.0,0.0
0.0778,-0.0149,-0.445,0.0,0.0
-0.4313,-0.0092,0.5933,0.0,0.0
0.5249,0.0008,-0.3737,0.0,0.0
0.2347,0.0008,0.7826,0.0,0.0
0.3203,0.0719,0.5879,0.0,0.0
0.1319,-0.042,-0.8162,0.0,0.0
0.6715,0.0246,0.3739,0.27201086956521736,0.019105727264629908
0.5915,0.0619,-0.2588,0.0,0.0
-0.8071,0.1188,0.1532,0.6069746376811594,0.042633192940487855
0.3262,0.0062,-0.4821,0.0,0.0
0.6965,-0.1616,0.2628,0.0,0.0
0.2008,0.0097,0.6761,0.0,0.0
-0.0396,0.2583,0.9442,0.0,0.0
-0.0795,0.2144,0.9305,0.0,0.0
0.5332,0.0197,-0.4127,0.0,0.0
-0.8513,0.0913,-0.0026,0.2728260869565217,0.019162987186501924
-0.4699,0.0545,0.7284,0.0,0.0
-0.49,-0.0581,0.2762,0.0,0.0
-0.0474,-0.2739,0.9339,0.0,0.0
0.6329,0.0008,-0.0808,0.0,0.0
0.4472,-0.0092,0.6618,0.0,0.0
0.0242,-0.0596,-0.9164,0.0,0.0
-0.6282,0.0749,-0.1923,0.0,0.0
-0.4489,-0.0221,-0.7035,0.0,0.0
-0.5915,-0.2382,-0.3451,0.0,0.0
-0.3587,0.2531,0.8572,0.0,0.0
0.3809,0.0008,0.5511,0.6894927536231884,0.04842916947664431
0.1599,0.2474,0.7588,2.3478260869565215,0.16490857499141098
0.5082,-0.0463,0.1467,7.222373188405797,0.5072910967183702
-0.4624,0.0493,-0.3239,0.0,0.0
-0.7177,0.0362,-0.3154,0.0,0.0
-0.5938,0.0592,-0.2097,0.0,0.0
-0.2821,-0.1309,0.622,0.44030797101449276,0.0309267200244309
0.4804,-0.0075,-0.0923,0.0,0.0
-0.4934,-0.2232,-0.4827,0.0,0.0
0.7053,-0.0202,-0.6352,0.0,0.0
-0.5315,0.0008,-0.1699,0.0,0.0
-0.0124,-0.0194,-0.415,0.0,0.0
0.0157,0.1391,0.9355,0.0,0.0
0.6236,0.0676,0.5007,0.0,0.0
0.3421,-0.0717,-0.9272,0.0,0.0
-0.7944,0.006,-0.4865,0.0,0.0
-0.6876,0.1031,0.0164,2.002264492753623,0.14063673033121682
-0.6173,0.1876,0.5432,0.0,0.0
-0.2892,-0.0413,-0.8124,0.0,0.0
-0.0106,0.0492,0.7263,0.0,0.0
0.7685,0.0684,-0.19,0.0,0.0
0.5411,0.0008,-0.135,0.0,0.0
0.6675,-0.1453,-0.1676,0.0,0.0
-0.7077,-0.1142,0.1627,0.0,0.0
-0.3751,-0.0941,-0.3048,0.0,0.0
0.5828,-0.0112,-0.5841,0.0,0.0
-0.2672,-0.1276,0.8749,0.0,0.0
0.6013,-0.0924,-0.3255,0.0,0.0
-0.1676,0.0008,0.8156,0.0,0.0
0.4234,0.2079,0.492,1.3903985507246377,0.09765997785949687
0.1538,0.1251,0.6965,0.0,0.0
-0.1115,0.275,0.637,3.416304347826087,0.2399572459250022
0.1345,0.2793,1.006,0.0,0.0
-0.4926,-0.0037,0.2642,0.0,0.0
-0.2526,-0.0216,-0.6599,0.0,0.0
-0.4838,-0.1137,0.3007,0.0,0.0
-0.065,0.2785,0.9188,0.0,0.0
-0.4136,0.1083,0.0615,0.353713768115942,0.02484444387891435
0.447,0.2444,0.7491,2.192572463768116,0.1540037409815623
-0.5575,0.0913,-0.0447,0.0,0.0
0.5586,-0.2438,-0.398,0.0,0.0
-0.7073,-0.118,0.1687,0.0,0.0
-0.5386,0.0008,0.0107,0.0,0.0
0.5423,-0.0092,0.5542,0.0,0.0
0.2872,0.2546,0.7322,0.2516304347826087,0.017674229217829466
-0.5121,-0.0302,-0.6915,0.0,0.0
-0.4025,0.0055,-0.4858,0.0,0.0
0.3414,0.2701,0.8122,1.1403985507246377,0.08010026848541144
-0.5088,-0.0789,0.1237,0.26711956521739133,0.018762167733397804
-0.2544,0.2742,0.9768,0.0,0.0
-0.6092,0.0555,-0.2285,0.0,0.0
0.4083,0.1523,0.179,2.0120471014492756,0.14132384939368106
-0.154,0.2415,0.728,0.504891304347826,0.035462978279402965
-0.4502,-0.271,0.3966,0.0,0.0
0.8661,0.1492,0.2681,0.0,0.0
-0.4382,0.2433,0.7375,0.0,0.0
0.3498,0.0633,0.5556,0.0,0.0
0.8961,0.1018,0.0568,0.0,0.0
-0.1965,0.2512,0.7781,0.0,0.0
-0.3243,-0.025,-0.6622,0.0,0.0
-0.4802,0.0775,-0.1156,1.6428442028985506,0.11539146699919835
0.4197,0.0822,-0.0824,2.9020833333333336,0.20383895965084173
-0.4309,0.0008,-0.2403,0.0,0.0
0.6262,0.0092,-0.4684,0.0,0.0
0.3788,-0.1381,0.8081,0.0,0.0
-0.5264,0.0605,-0.266,0.0,0.0
-0.4084,-0.0092,0.625,0.0,0.0
-0.2631,-0.2445,-0.5787,0.0,0.0
-0.5578,0.0088,-0.4704,0.0,0.0
-0.7886,0.0966,0.0274,0.0,0.0
-0.7008,0.024,-0.0153,0.0,0.0
0.6992,-0.0774,-0.0195,0.0,0.0
0.6229,-0.2825,0.5045,0.0,0.0
-0.653,-0.2037,0.432,0.0,0.0
0.7012,0.037,-0.0046,0.0,0.0
-0.5888,-0.1036,-0.3498,0.0,0.0
-0.6497,0.1936,0.4381,0.0,0.0
0.5068,-0.0385,0.0537,1.490036231884058,0.10465841275496571
-0.6924,0.2176,0.6559,0.0,0.0
-0.0952,0.0008,0.8604,0.0,0.0
0.6728,0.0397,-0.2953,0.0,0.0
0.14,0.0142,-0.5041,0.0,0.0
-0.2799,-0.1469,-0.4037,1.5495471014492754,0.108838387051623
-0.6613,-0.1913,-0.188,0.0,0.0
0.3694,-0.1023,-0.3125,0.0,0.0
-0.7707,0.0851,-0.0381,0.0,0.0
-0.7586,0.0031,-0.5604,0.0,0.0
-0.8284,0.1046,0.015,0.2728260869565217,0.019162987186501924
0.7588,0.0572,-0.254,0.0,0.0
0.4498,0.1879,0.4525,0.0,0.0
0.2459,-0.0605,-0.8638,0.0,0.0
0.3642,-0.0092,0.6936,0.0,0.0
0.8809,0.1154,0.0765,0.0,0.0
0.6346,0.0303,0.4748,0.0,0.0
0.5439,0.0008,0.5909,0.6126811594202899,0.04303401239359198
0.3675,-0.2477,-0.5046,1.332155797101449,0.09356907455241825
0.1455,-0.0896,0.9182,0.0,0.0
0.5209,-0.0507,-0.8078,0.0,0.0
0.3206,-0.2291,0.5878,0.0,0.0
-0.4055,0.2464,0.6903,0.0,0.0
0.8041,0.1516,0.3392,0.0,0.0
0.6363,-0.0092,0.0047,0.0,0.0
0.3675,0.1589,0.2504,0.353713768115942,0.02484444387891435
-0.1099,-0.024,-0.6376,0.0,0.0
0.2151,-0.0092,0.7038,0.0,0.0
0.4632,-0.0092,0.381,1.801177536231884,0.12651261626945245
-0.642,0.0409,-0.2888,0.0,0.0
0.4401,-0.0937,0.4187,0.2614130434782609,0.01836134828029368
0.366,0.0008,0.6058,0.0,0.0
-0.4454,-0.0575,-0.8466,0.0,0.0
-0.7966,0.163,0.404,0.0,0.0
0.5125,0.2123,0.6806,0.789945652173913,0.05548486429398516
0.4161,0.2113,0.4637,4.952989130434782,0.34789219865375554
-0.3592,-0.0051,-0.6013,0.0,0.0
0.7096,0.1676,0.3725,0.0,0.0
0.3888,-0.0797,0.8005,0.0,0.0
-0.6469,-0.2865,0.4484,0.0,0.0
0.318,0.0026,0.8481,0.0,0.0
-0.6235,0.088,-0.1245,0.0,0.0
-0.4267,-0.0488,-0.8546,0.0,0.0
-0.5902,-0.0189,-0.6851,0.0,0.0
0.7089,-0.2505,0.1221,0.0,0.0
-0.0419,-0.0075,0.723,0.0,0.0
-0.2166,-0.045,0.6673,0.6077898550724637,0.04269045286235987
0.2776,-0.1874,0.8699,0.0,0.0
0.3773,-0.059,-0.3023,0.0,0.0
0.4566,0.0008,0.5815,0.0,0.0
0.1274,0.0008,0.8516,0.0,0.0
0.6868,0.0008,0.3074,0.2752717391304348,0.01933476695211798
-0.7505,0.1532,0.3484,0.0,0.0
0.6533,0.0209,-0.2088,0.0,0.0
0.283,0.2214,0.4834,1.0,0.07023883749634173
0.4991,0.059,0.2309,0.8903985507246377,0.06254055911132601
-0.5547,-0.0802,-0.404,0.0,0.0
-0.468,0.2448,0.8104,0.0,0.0
-0.0152,-0.0092,0.9311,0.0,0.0
-0.6553,0.0041,-0.4971,0.0,0.0
0.7644,0.1783,0.4908,0.0,0.0
0.3969,-0.0532,-0.8798,0.0,0.0
0.3299,0.2117,0.4006,0.0,0.0
-0.0742,0.182,0.7137,2.0880434782608694,0.14666174655486136
0.499,0.0699,-0.1545,0.0,0.0
-0.5605,-0.1689,-0.3954,0.0,0.0
-0.0398,-0.0092,0.8631,0.0,0.0
0.8764,0.0755,-0.0923,0.0,0.0
-0.4925,0.0223,0.2644,0.0,0.0
0.0427,0.258,0.7498,2.912228260869565,0.20455152756747125
0.1387,0.2394,0.7176,2.9548007246376806,0.20754176793189882
0.4942,-0.2629,0.2575,0.0,0.0
0.2529,0.0008,0.7859,0.0,0.0
0.3221,-0.0623,-0.8741,0.0,0.0
0.2457,0.2248,0.4962,0.3814311594202899,0.026791281222562954
0.6183,-0.0092,0.004,0.0,0.0
0.3408,0.0068,-0.4793,0.0,0.0
0.4825,0.1573,0.1977,2.2473731884057973,0.15785288017407018
-0.2863,-0.0632,-0.6292,0.0,0.0
-0.1745,-0.1766,0.9104,0.0,0.0
-0.1985,-0.0494,0.9027,0.0,0.0
0.4047,-0.2726,0.4828,7.351449275362318,0.516357251014773
0.0948,0.2633,0.6399,0.8798007246376812,0.061796180126989786
0.4361,-0.1842,-0.5394,0.0,0.0
-0.4319,0.0499,-0.1566,0.0,0.0
0.329,0.2529,0.787,1.1403985507246377,0.08010026848541144
-0.4789,0.0965,-0.0292,0.0,0.0
-0.4277,0.0008,0.714,0.0,0.0
0.1977,-0.0097,-0.3791,0.0,0.0
0.3543,0.2659,0.8219,0.0,0.0
0.1875,0.2513,0.7786,1.3021739130434784,0.0914631818702363
-0.3319,0.0487,0.5761,0.5342391304347827,0.03752433546679561
0.7207,-0.01,-0.5773,0.0,0.0
-0.824,0.1116,0.055,0.27445652173913043,0.01927750703024596
0.2063,-0.0092,0.7678,0.0,0.0
-0.7794,0.1504,0.2751,0.0,0.0
-0.6485,-0.0193,-0.6297,0.0,0.0
-0.3542,0.0159,-0.4956,0.0,0.0
-0.3617,0.2185,0.426,0.5040760869565217,0.03540571835753095
-0.4081,-0.124,-0.2568,0.0,0.0
-0.7226,0.1096,0.1013,0.0,0.0
0.3383,0.2628,0.7746,1.1403985507246377,0.08010026848541144
0.699,-0.0054,-0.0286,0.0,0.0
-0.4551,-0.0029,-0.4468,0.0,0.0
0.1057,-0.0285,-0.661,0.0,0.0
-0.6911,0.0443,-0.327,0.0,0.0
0.4762,0.2387,0.7136,6.712590579710144,0.4714845589077351
-0.686,0.0503,-0.2351,0.0,0.0
-0.6259,0.0008,-0.0426,0.0,0.0
0.2109,-0.0827,0.8984,0.0,0.0
0.6395,0.0008,0.2448,0.0,0.0
-0.2868,-0.0378,0.8651,0.0,0.0
-0.1425,-0.186,0.9189,0.0,0.0
-0.3295,-0.2599,0.8412,0.0,0.0
-0.6304,0.0257,-0.3747,0.0,0.0
0.1312,0.2595,0.9214,0.0,0.0
-0.5725,-0.2037,0.5973,0.0,0.0
-0.7953,0.0182,-0.4175,0.0,0.0
-0.3732,0.2642,0.9204,0.6126811594202899,0.04303401239359198
0.4866,-0.037,-0.7882,0.0,0.0
-0.6234,-0.2229,0.5037,0.0,0.0
-0.1168,-0.2077,0.9245,0.0,0.0
-0.4784,-0.1169,-0.0995,3.4114130434782606,0.2396136863937701
0.3135,0.1201,0.1056,1.0760869565217392,0.07558309687106339
-0.5746,-0.0904,-0.3734,0.0,0.0
0.2728,0.2235,0.4447,0.0,0.0
-0.6855,0.0736,-0.1607,0.25244565217391307,0.017731489139701486
-0.4026,-0.152,-0.2655,0.0,0.0
0.6781,-0.0277,-0.6777,0.0,0.0
0.4755,0.131,0.7226,0.0,0.0
0.018,0.1197,0.7249,0.0,0.0
0.5484,-0.0449,-0.4112,0.0,0.0
-0.3835,0.2266,0.5883,1.2172101449275363,0.08549542556846378
-0.3382,-0.2867,-0.3493,0.0,0.0
-0.3909,0.0349,-0.3977,0.0,0.0
0.4595,0.0008,-0.4358,0.0,0.0
-0.82,0.1156,0.1352,0.6069746376811594,0.042633192940487855
-0.5598,0.2178,0.5432,0.0,0.0
0.5984,0.1879,0.4524,0.0,0.0
-0.4634,0.2346,0.6296,0.0,0.0
0.0007,-0.0181,-0.6072,0.0,0.0
0.6868,0.1733,0.4624,0.0,0.0
-0.5899,-0.2057,-0.3479,0.0,0.0
0.3882,-0.1846,-0.2872,1.4916666666666667,0.10477293259870973
-0.5453,-0.0944,0.6379,0.0,0.0
-0.6538,0.1711,0.4297,0.0,0.0
0.4509,-0.037,-0.7878,0.0,0.0
-0.6519,0.0991,-0.0676,0.0,0.0
-0.2451,0.0166,-0.3274,0.0,0.0
0.4226,-0.1608,-0.5514,0.0,0.0
-0.3207,-0.1431,-0.3674,0.0,0.0
-0.8404,0.1525,0.3442,0.0,0.0
-0.6931,-0.0823,-0.064,0.0,0.0
0.7052,0.1412,0.2226,0.0,0.0
-0.5091,0.1295,0.1082,0.6118659420289856,0.04297675247171996
-0.4067,0.0008,-0.3476,0.0,0.0
0.3347,-0.0018,-0.5234,2.107608695652174,0.1480359846797898
0.4846,0.0745,-0.0648,3.539583333333333,0.24861621855475952
-0.5481,-0.0092,-0.1619,0.0,0.0
0.3906,-0.2203,-0.2837,3.7170289855072465,0.2610797948822354
-0.1568,-0.2528,0.9153,0.0,0.0
-0.1542,-0.061,-0.8665,0.0,0.0
0.6856,0.1424,0.3059,0.0,0.0
0.2238,-0.0504,-0.8637,0.0,0.0
0.4933,0.0008,0.3465,0.0,0.0
-0.373,-0.1326,-0.3076,0.0,0.0
0.3122,-0.0435,-0.7675,0.0,0.0
-0.1745,-0.0607,-0.8645,0.0,0.0
0.758,0.0734,-0.104,0.0,0.0
0.5607,-0.0047,0.615,0.8692028985507246,0.06105180114265355
0.4342,0.1079,0.4307,1.1558876811594203,0.08118820700097978
0.4711,0.0556,0.7272,0.0,0.0
-0.4248,-0.0092,0.7413,0.3382246376811594,0.023756505363346014
-0.7087,-0.1287,0.1386,0.0,0.0
0.3749,0.0688,-0.1326,0.0,0.0
-0.6473,0.0008,0.3342,0.0,0.0
-0.3412,0.1132,0.565,0.0,0.0
0.44,0.0229,-0.3962,0.0,0.0
0.8052,0.1368,0.1976,0.0,0.0
0.4086,0.0138,0.4765,1.273641304347826,0.08945908460471566
0.0023,0.0008,0.8535,0.0,0.0
0.7001,0.1538,0.2137,0.0,0.0
0.4545,0.0998,0.3865,0.6249094202898551,0.04389291122167224
0.3925,-0.1399,0.7978,0.0,0.0
0.4516,-0.1626,-0.1729,2.190942028985507,0.15388922113781825
-0.4905,-0.2844,-0.0542,0.0,0.0
0.4167,-0.0664,-0.2424,0.0,0.0
-0.0106,-0.0092,0.7398,0.0,0.0
0.6284,-0.0744,0.4901,2.5934782608695652,0.18216289811551234
0.8361,0.162,0.3984,0.0,0.0
0.0044,0.2784,0.8549,0.0,0.0
0.8291,0.0759,-0.0902,0.0,0.0
-0.709,0.0827,0.1006,0.0,0.0
-0.0828,0.2765,0.9902,0.0,0.0
-0.6791,-0.21,-0.1272,0.0,0.0
-0.4692,-0.1439,-0.5088,0.0,0.0
0.1698,0.0074,-0.3151,0.0,0.0
0.0509,-0.0721,-0.9296,0.0,0.0
0.5781,0.0529,0.5854,0.0,0.0
-0.6941,0.0293,-0.0585,0.0,0.0
-0.2958,-0.0047,-0.5386,0.0,0.0
0.3443,-0.0419,-0.8159,0.0,0.0
0.5255,-0.1588,0.6642,0.0,0.0
-0.4183,-0.1834,0.7768,0.0,0.0
0.1048,0.0036,0.9266,0.0,0.0
0.0181,-0.0125,-0.5787,0.0,0.0
0.3152,0.1059,0.8496,1.3209239130434782,0.09278016007329269
0.6913,-0.0829,0.2924,0.0,0.0
0.7406,-0.0021,-0.5899,0.0,0.0
-0.1378,0.0771,0.9199,0.0,0.0
-0.5032,-0.1804,0.2031,0.0,0.0
-0.0923,-0.041,-0.7532,0.0,0.0
-0.1947,-0.0603,-0.9201,0.0,0.0
0.3718,0.0223,-0.3123,0.0,0.0
-0.6711,-0.0406,-0.1563,0.0,0.0
0.6181,-0.08,0.5132,1.817391304347826,0.12765145249335147
-0.7405,0.1033,0.0077,0.2516304347826087,0.017674229217829466
0.1617,-0.191,0.914,0.0,0.0
-0.5995,0.0419,-0.3405,0.0,0.0
0.311,0.0008,0.7043,0.0,0.0
0.3635,0.0407,-0.191,0.0,0.0
-0.3046,-0.0417,0.6028,0.0,0.0
0.2092,-0.0092,0.8688,0.0,0.0
0.3661,0.0008,0.7051,0.0,0.0
-0.3225,0.2451,0.7465,0.8602355072463769,0.06042194200206136
0.2467,0.2356,0.5366,0.0,0.0
0.6927,0.0589,-0.1866,0.0,0.0
0.1979,0.0752,0.6775,0.0,0.0
0.2303,0.014,-0.3371,0.0,0.0
-0.5298,-0.2168,-0.4386,0.0,0.0
0.6712,0.0008,-0.0312,0.0,0.0
0.7386,0.0232,-0.4463,0.0,0.0
0.6573,-0.051,0.4165,0.0,0.0
-0.3694,0.2083,0.5572,0.8594202898550725,0.06036468208018934
0.5655,-0.0092,0.1462,0.2516304347826087,0.017674229217829466
0.347,-0.0408,0.5596,0.6894927536231884,0.04842916947664431
-0.2745,-0.0092,0.7596,0.0,0.0
0.7824,0.0589,-0.2442,0.0,0.0
-0.5137,0.0828,-0.1515,0.0,0.0
0.5067,0.1272,0.6877,0.0,0.0
0.067,0.115,0.7213,0.0,0.0
0.4636,0.0473,-0.3343,0.0,0.0
0.4185,-0.0092,-0.398,0.0,0.0
-0.6428,-0.1412,0.4587,0.0,0.0
0.1761,-0.0282,-0.738,0.0,0.0
-0.4335,-0.1706,0.7635,0.0,0.0
-0.6138,0.0173,-0.4802,0.0,0.0
0.4185,-0.1102,-0.2394,0.0,0.0
0.4551,-0.1709,0.7433,0.0,0.0
-0.7588,0.1622,0.3416,0.0,0.0
0.6566,-0.0092,0.0115,0.0,0.0
0.4211,-0.2882,-0.2348,0.0,0.0
-0.6671,-0.008,-0.5661,0.0,0.0
-0.6673,0.0008,0.2184,0.0,0.0
-0.0258,0.2811,0.7268,4.244202898550724,0.29810787769280683
-0.2692,-0.0198,-0.6161,0.0,0.0
0.4945,-0.0092,0.2893,0.0,0.0
0.0005,-0.0867,-1.0119,0.0,0.0
0.611,-0.0092,0.2592,0.0,0.0
-0.5382,-0.0092,0.5935,0.0,0.0
-0.3528,0.1985,0.398,1.022463768115942,0.07181666645459288
-0.5059,0.0038,0.0485,0.3545289855072463,0.024901703800786365
-0.5401,-0.0059,0.645,0.0,0.0
0.5831,0.0988,0.5762,0.0,0.0
0.747,0.155,0.301,0.0,0.0
0.8722,0.1206,0.1058,0.0,0.0
-0.187,-0.0904,0.6829,0.0,0.0
0.6861,0.1096,-0.0137,0.0,0.0
-0.4574,0.0134,-0.4451,0.0,0.0
-0.0178,-0.0225,-0.6299,0.0,0.0
0.6982,0.0753,0.2424,0.0,0.0
-0.2964,0.2515,0.9057,0.8618659420289855,0.06053646184580539
0.7013,-0.03,-0.0042,0.0,0.0
-0.4639,-0.051,0.7344,0.0,0.0
-0.096,0.2646,0.7195,10.302083333333332,0.7236063571237704
0.8078,0.1197,0.1007,0.0,0.0
0.7051,0.0008,0.0628,0.0,0.0
-0.461,0.1775,0.3199,0.0,0.0
-0.6385,0.0124,-0.508,0.0,0.0
0.5061,-0.0234,0.1766,4.6290760869565215,0.3251409230299405
-0.5747,0.1626,0.3222,0.0,0.0
0.1765,-0.1289,0.9098,0.0,0.0
0.1816,0.0008,0.8456,0.0,0.0
0.5248,0.0385,-0.3159,0.0,0.0
-0.5063,0.1971,0.4366,0.2516304347826087,0.017674229217829466
-0.3732,0.1989,0.3996,0.5192028985507247,0.03646820801893395
-0.0219,-0.0532,-0.8223,0.0,0.0
-0.4876,0.0819,-0.0676,0.6126811594202899,0.04303401239359198
0.4511,0.1142,0.0835,0.0,0.0
0.4932,0.1222,0.2619,0.7899456521739131,0.055484864293985164
-0.1042,0.2582,0.8142,0.25244565217391307,0.017731489139701486
0.5494,0.0009,-0.5731,0.0,0.0
0.4721,-0.0452,-0.5055,0.0,0.0
0.6733,0.0008,0.1946,0.0,0.0
0.2599,-0.0688,-0.9682,0.0,0.0
0.3499,0.031,0.8281,0.0,0.0
-0.3014,0.2737,0.8305,4.882699275362318,0.34295512094567937
0.5932,0.1226,0.1166,0.0,0.0
-0.6937,-0.2605,0.2814,0.0,0.0
0.5091,0.0548,-0.2324,0.0,0.0
0.5343,0.0008,-0.2304,0.0,0.0
-0.0094,0.2623,0.7718,0.2516304347826087,0.017674229217829466
-0.1415,-0.0022,-0.5252,0.0,0.0
-0.4492,0.2344,0.8087,0.0,0.0
0.7881,0.1628,0.4025,0.25081521739130436,0.01761696929595745
0.339,0.1969,0.3455,1.3029891304347827,0.09152044179210832
0.0831,-0.0092,0.7913,0.0,0.0
0.6264,0.0008,0.162,0.0,0.0
0.0049,-0.1537,0.9357,0.0,0.0
0.5791,0.0008,-0.2359,0.0,0.0
-0.5131,0.0709,-0.1493,0.0,0.0
0.3111,0.1839,0.5966,6.1441123188405795,0.4315553067223148
0.4999,-0.1463,0.2265,0.0,0.0
0.2747,-0.2554,0.8713,0.0,0.0
0.3496,-0.0296,-0.6885,0.0,0.0
-0.1912,0.2557,0.565,0.0,0.0
-0.6686,0.1524,0.2065,0.0,0.0
0.3516,0.2085,0.4355,0.0,0.0
-0.366,0.0193,-0.4148,0.0,0.0
-0.337,0.2206,0.6205,0.6069746376811594,0.042633192940487855
-0.3025,-0.0092,0.7406,0.0,0.0
0.4279,-0.0531,-0.8218,0.0,0.0
0.5454,0.0008,-0.3554,0.0,0.0
0.7024,-0.225,0.2216,0.0,0.0
0.5796,0.1819,0.4217,0.0,0.0
-0.2899,-0.0439,0.6155,0.0,0.0
-0.6992,-0.0615,0.2474,0.0,0.0
0.2777,0.0008,0.8101,0.0,0.0
0.7763,0.0147,-0.4945,0.0,0.0
0.574,-0.0092,-0.1304,0.0,0.0
-0.6898,0.0271,-0.3667,0.0,0.0
0.0489,0.1796,0.9338,0.0,0.0
0.5015,-0.0607,0.2158,6.141304347826086,0.43135807810253335
0.6727,0.106,0.3704,0.0,0.0
0.2529,0.0008,0.7583,0.0,0.0
0.6089,0.0869,-0.1302,0.0,0.0
0.3816,-0.0092,0.6203,0.0,0.0
0.447,-0.0092,-0.1978,0.0,0.0
-0.4315,-0.0455,-0.7787,0.0,0.0
0.2896,0.0096,-0.528,0.8789855072463768,0.06173892020511776
-0.6764,0.0671,-0.1977,0.0,0.0
0.507,-0.1995,0.165,0.2769021739130435,0.01944928679586202
-0.3563,0.2496,0.542,0.0,0.0
-0.631,0.0008,0.3561,0.0,0.0
-0.5284,0.0008,0.4906,0.0,0.0
-0.7061,0.1099,0.0341,0.7760869565217391,0.054511445622160856
0.3227,0.1808,0.5849,6.237228260869565,0.4380956622428075
-0.5089,-0.0092,-0.0713,0.0,0.0
0.2735,0.2719,0.9639,0.0,0.0
-0.1595,0.2527,0.7859,0.0,0.0
-0.2661,-0.1108,-0.4144,0.0,0.0
-0.2235,-0.0434,-0.824,0.0,0.0
-0.5815,0.1451,0.2322,0.0,0.0
0.7863,0.1181,0.0916,0.0,0.0
0.4534,0.0309,-0.4184,0.0,0.0
0.3541,0.0008,-0.4279,0.0,0.0
0.4195,0.204,0.4578,5.042028985507247,0.35414625456488824
-0.3902,0.0833,-0.0318,0.0,0.0
0.708,-0.22,0.0735,0.0,0.0
0.3862,-0.2136,-0.29,2.1043478260869564,0.1478069449923017
0.607,-0.0092,-0.0531,0.0,0.0
0.4462,0.2225,0.5673,0.7744565217391304,0.05439692577841682
0.4071,-0.0384,0.786,0.0,0.0
-0.5427,0.2237,0.7479,0.0,0.0
0.1508,0.2774,0.9131,0.25815217391304346,0.018132308592805606
0.2308,0.1946,0.8908,5.825452898550724,0.40917303948389716
0.6518,0.0714,-0.147,0.0,0.0
0.2527,0.2606,0.7634,0.26875,0.018876687577141837
-0.5912,0.1314,0.0987,0.0,0.0
-0.2606,-0.0659,-0.8944,0.0,0.0
0.6345,0.087,-0.1298,0.0,0.0
0.4809,0.0076,0.7168,0.0,0.0
0.1805,0.0008,0.8969,0.0,0.0
-0.2043,-0.0901,0.6739,1.322554347826087,0.09289467991703673
0.4693,-0.0136,0.3478,1.2115036231884058,0.08509460611535966
-0.6028,0.1903,0.5448,0.0,0.0
-0.4632,-0.2173,-0.1442,0.0,0.0
-0.2856,0.2067,0.8658,0.0,0.0
0.4806,0.1954,0.4908,0.0,0.0
0.1115,0.0001,-0.3423,0.0,0.0
-0.3063,0.0323,-0.2222,0.0,0.0
-0.9043,0.1039,0.0686,0.0,0.0
-0.2551,-0.1981,-0.4221,2.484963768115942,0.17454096629299265
0.4165,-0.2197,0.4633,6.015760869565217,0.4225400501342427
0.79,0.1338,0.2384,0.0,0.0
-0.7028,-0.0823,0.2194,0.0,0.0
-0.5847,-0.1704,-0.3569,0.0,0.0
0.3556,-0.0992,-0.4822,0.0,0.0
-0.429,-0.1583,-0.2202,0.0,0.0
0.388,-0.1526,-0.5432,0.0,0.0
0.8769,0.1056,0.0206,0.0,0.0
0.3115,0.0333,-0.4063,0.0,0.0
-0.4134,0.0146,-0.5023,0.0,0.0
-0.3338,-0.1964,-0.3539,0.0,0.0
-0.6546,0.0008,0.0458,0.0,0.0
0.4441,-0.1751,-0.19,0.7809782608695652,0.05485500515339296
0.1744,-0.0815,-0.9829,0.0,0.0
0.5228,0.0008,0.3377,0.0,0.0
0.6237,0.1379,0.1319,0.0,0.0
-0.4011,0.1494,0.4868,0.0,0.0
0.6108,-0.0249,-0.6615,0.0,0.0
-0.2077,-0.0462,-0.7826,0.0,0.0
0.6829,0.0929,-0.036,0.0,0.0
0.1359,-0.0092,0.7358,0.0,0.0
-0.4244,-0.0092,-0.443,0.0,0.0
-0.2382,-0.0375,-0.7335,0.0,0.0
0.0413,-0.0106,-0.3824,0.35615942028985503,0.025016223644530402
-0.2214,-0.0019,0.6644,0.0,0.0
0.5706,-0.0092,0.1234,0.2516304347826087,0.017674229217829466
0.6932,0.1072,0.267,0.0,0.0
0.8119,0.0513,-0.2873,0.0,0.0
0.4069,0.023,-0.3957,0.0,0.0
0.6739,0.0704,-0.1465,0.0,0.0
-0.7517,0.0429,-0.335,0.0,0.0
0.3674,0.2535,0.9172,0.0,0.0
0.3395,0.2227,0.6313,0.0,0.0
0.1502,0.2549,0.7338,2.627173913043478,0.18452964155288906
-0.5383,-0.1124,-0.427,0.0,0.0
-0.2278,-0.0475,-0.7898,0.0,0.0
-0.1576,0.0008,0.7453,0.0,0.0
0.4181,-0.2582,0.777,0.0,0.0
-0.709,0.0228,0.0989,0.0,0.0
0.3447,0.0425,-0.3589,0.0,0.0
0.568,0.0464,-0.2753,0.0,0.0
0.1236,-0.0594,-0.8573,0.0,0.0
0.1641,-0.0554,-0.835,0.0,0.0
-0.709,-0.1616,0.1208,0.27445652173913043,0.01927750703024596
0.4919,-0.1912,0.7048,0.0,0.0
-0.1086,-0.0092,0.8051,0.0,0.0
-0.8415,0.075,-0.0951,0.0,0.0
-0.3883,-0.0861,-0.2866,0.0,0.0
-0.6928,-0.2048,-0.0658,0.0,0.0
0.6832,-0.1639,0.3295,0.0,0.0
0.3732,-0.1207,0.8122,0.0,0.0
0.4139,-0.1706,0.4677,0.5228260869565218,0.03672269656058736
-0.4056,-0.0463,-0.8408,0.0,0.0
0.4829,-0.1503,-0.0839,2.4605072463768116,0.17282316863683211
0.5244,-0.2863,-0.4454,0.0,0.0
-0.1214,-0.0162,-0.6606,0.0,0.0
-0.6409,-0.0418,0.4635,0.0,0.0
-0.3593,-0.0092,-0.3944,0.0,0.0
0.7007,0.1448,0.2307,0.0,0.0
-0.1566,0.2679,0.8642,0.25652173913043474,0.01801778874906157
0.3955,0.0726,-0.1183,0.436231884057971,0.030640420415070806
0.302,-0.0203,-0.693,0.0,0.0
-0.6176,-0.2232,0.5158,0.0,0.0
-0.2329,0.0219,-0.261,0.6992753623188406,0.04911628853910852
0.4067,0.0444,-0.2858,0.0,0.0
-0.468,-0.2781,0.3517,0.0,0.0
0.7432,0.0679,-0.1931,0.0,0.0
-0.4243,-0.2332,-0.229,0.0,0.0
0.2522,0.2641,0.9774,0.0,0.0
0.2685,0.2137,0.4548,0.0,0.0
0.5253,0.0756,0.664,1.5397644927536234,0.10815126798915879
-0.6058,0.0556,-0.2913,0.0,0.0
-0.4742,0.0531,0.3322,0.0,0.0
-0.6758,0.0601,-0.1798,0.25244565217391307,0.017731489139701486
0.4053,0.0008,0.5625,0.0,0.0
-0.5125,-0.0368,-0.7865,0.0,0.0
0.5489,-0.2508,0.6326,0.0,0.0
-0.3087,0.0022,0.8533,0.0,0.0
0.5316,0.2259,0.6481,0.0,0.0
-0.8765,0.0915,-0.0589,0.0,0.0
0.3684,0.1879,0.3586,1.3977355072463769,0.09817531715634503
-0.5053,0.1738,0.6894,0.0,0.0
0.2468,-0.038,-0.7934,0.0,0.0
-0.3755,0.0176,-0.4871,0.0,0.0
-0.0396,0.1905,0.9344,0.0,0.0
0.3142,0.0308,-0.2279,0.0,0.0
-0.2605,0.2567,0.9353,0.0,0.0
-0.8512,0.0374,-0.3087,0.0,0.0
0.1188,-0.0251,-0.7031,0.0,0.0
0.7999,0.0771,-0.1411,0.0,0.0
-0.6951,-0.1777,0.2733,0.0,0.0
0.6299,0.1811,0.3541,0.0,0.0
0.4891,0.1227,0.0686,0.7785326086956523,0.054683225387776924
-0.5268,-0.0092,0.1283,0.0,0.0
-0.6386,0.2108,0.675,0.0,0.0
-0.379,-0.1416,-0.5874,0.0,0.0
-0.3367,-0.0288,0.8367,0.0,0.0
0.4399,-0.045,-0.8334,0.0,0.0
0.1556,0.2691,1.0057,0.0,0.0
-0.6129,-0.1498,-0.3049,0.0,0.0
-0.0616,0.221,0.7161,2.948278985507246,0.2070836885569227
-0.2031,-0.1742,0.9012,0.0,0.0
-0.4771,-0.0166,-0.6147,0.0,0.0
0.0673,-0.0656,-0.9504,0.0,0.0
-0.0449,-0.0149,-0.6542,0.0,0.0
-0.1645,-0.2475,0.6932,0.0,0.0
-0.7088,-0.0236,0.0879,0.0,0.0
-0.5164,0.213,0.5818,0.0,0.0
0.5644,-0.0171,-0.6175,0.0,0.0
-0.1165,-0.0977,0.7093,0.0,0.0
0.5592,0.1983,0.4427,0.0,0.0
0.1157,-0.2535,0.7104,0.0,0.0
-0.5828,0.0008,-0.0697,0.0,0.0
0.6813,0.1621,0.2566,0.0,0.0
-0.192,-0.0282,-0.6594,0.0,0.0
0.7611,0.0546,-0.2685,0.0,0.0
-0.3894,0.1658,0.5041,0.0,0.0
0.5584,0.05,-0.32,0.0,0.0
-0.0899,-0.0053,-0.3626,0.0,0.0
-0.5116,-0.1671,-0.4614,0.0,0.0
-0.5062,-0.1069,0.0486,1.4802536231884058,0.10397129369250149
0.1664,0.2493,0.7053,0.0,0.0
-0.4135,0.0472,-0.2131,0.0,0.0
-0.3095,0.0129,-0.5112,0.0,0.0
-0.3997,0.2029,0.5294,0.5032608695652174,0.03534845843565893
-0.6534,0.0073,-0.2106,0.0,0.0
-0.5965,0.0008,0.0618,0.0,0.0
-0.0325,0.2748,0.9802,0.0,0.0
0.6644,-0.0092,0.1535,0.0,0.0
0.2636,0.0484,0.8765,0.4517210144927536,0.03172835893063915
-0.0334,0.203,0.7216,2.3339673913043475,0.1639351563195867
-0.5065,-0.0092,0.3862,0.0,0.0
-0.4169,-0.0092,0.5561,0.0,0.0
0.3613,-0.0527,-0.8769,0.0,0.0
-0.2012,0.0008,0.718,0.0,0.0
-0.5072,-0.1826,0.059,0.0,0.0
0.5118,-0.2395,-0.4612,0.0,0.0
-0.7062,-0.0097,0.0362,0.0,0.0
-0.3562,-0.1035,-0.6036,0.0,0.0
0.2529,-0.2772,0.6443,0.0,0.0
-0.6149,0.0008,-0.103,0.0,0.0
-0.605,-0.0201,-0.6919,0.0,0.0
-0.6166,0.1593,0.2421,0.0,0.0
-0.8504,0.0397,-0.2952,0.0,0.0
-0.6076,-0.0992,0.5357,0.0,0.0
-0.2508,-0.2216,0.6458,0.0,0.0
-0.3279,-0.021,-0.6398,0.0,0.0
0.8779,0.0723,-0.168,0.0,0.0
0.1733,0.2565,0.688,0.3651268115942029,0.0256460827851226
-0.6347,0.0008,0.0211,0.0,0.0
-0.1536,0.2393,0.7171,0.7565217391304347,0.053137207497232435
0.4695,0.0893,0.7289,0.0,0.0
-0.4656,-0.078,-0.5125,0.0,0.0
-0.1587,0.2627,0.8371,2.360054347826087,0.16576747381949128
-0.1795,-0.0092,0.8461,0.0,0.0
0.7101,0.0092,-0.5261,0.0,0.0
-0.7067,0.161,0.3351,0.0,0.0
-0.2952,-0.2059,-0.3909,0.8757246376811594,0.061509880517629685
0.1447,0.2674,0.9386,0.0,0.0
0.4929,-0.234,-0.043,9.379710144927534,0.6588199366323529
0.4219,-0.2397,0.4539,11.846920289855074,0.8321139090712442
0.7054,-0.189,0.0261,0.0,0.0
-0.5547,-0.0092,0.2547,0.0,0.0
-0.2595,-0.0656,-0.9499,0.0,0.0
-0.8396,0.1633,0.3479,0.0,0.0
0.4115,0.0238,-0.3919,0.0,0.0
-0.4996,0.0008,-0.0307,0.0,0.0
-0.4617,0.0694,-0.2204,0.0,0.0
0.1445,-0.0092,0.7529,0.0,0.0
-0.2293,0.2183,0.4719,0.0,0.0
-0.0938,0.2717,0.8837,0.0,0.0
-0.2706,-0.0092,0.6424,0.0,0.0
-0.5356,-0.0092,-0.0792,0.0,0.0
0.4848,-0.0092,-0.2237,0.0,0.0
0.0217,-0.072,-0.9862,0.0,0.0
-0.318,-0.1006,-0.3699,0.0,0.0
-0.44,0.0251,-0.3851,0.0,0.0
0.5571,0.0008,0.087,0.0,0.0
-0.4875,-0.0092,-0.1732,0.0,0.0
0.3974,0.0008,-0.432,0.0,0.0
-0.5218,-0.0129,0.6691,0.0,0.0
-0.475,-0.0515,-0.11,1.3944746376811596,0.09794627746885698
0.5146,0.2263,0.7055,1.9344202898550724,0.13587143238875668
-0.1371,-0.2649,0.7036,0.0,0.0
-0.5048,0.0244,0.1839,0.0,0.0
0.5057,0.022,0.0397,1.686050724637681,0.11842624285841528
0.0852,-0.0689,-0.9686,0.0,0.0
-0.1077,-0.0672,-0.9014,0.0,0.0
-0.3616,0.2196,0.5416,0.0,0.0
0.5219,0.0008,0.4446,0.0,0.0
0.2887,0.2671,0.9365,0.0,0.0
-0.5773,0.1086,0.0446,0.0,0.0
0.3867,0.1287,0.0908,0.35615942028985503,0.025016223644530402
0.6257,0.0796,-0.1047,0.0,0.0
0.5631,-0.0771,-0.3909,0.0,0.0
0.5973,-0.1673,0.5546,0.0,0.0
0.5285,-0.0092,0.414,0.0,0.0
0.6949,-0.1028,0.2717,0.0,0.0
0.4054,0.2279,0.6585,0.0,0.0
0.1488,0.2539,0.7919,0.8667572463768116,0.0608800213770375
-0.2393,-0.0092,-0.4458,0.0,0.0
0.2355,0.2682,0.8871,0.26711956521739133,0.018762167733397804
0.3856,0.166,0.2767,0.0,0.0
-0.4024,0.1913,0.371,0.3586050724637681,0.025188003410146455
-0.5601,-0.0092,0.0835,0.0,0.0
-0.3954,-0.2688,0.7955,0.0,0.0
0.3607,0.0008,0.6089,0.0,0.0
-0.0527,0.2696,0.8726,0.0,0.0
-0.6779,0.0521,-0.2827,0.0,0.0
0.7365,0.1953,0.587,0.0,0.0
0.1733,0.2396,0.9107,0.3463768115942029,0.02432910458206619
0.3302,0.1878,0.3116,1.221286231884058,0.08578172517782387
0.7743,0.162,0.3983,0.25081521739130436,0.01761696929595745
-0.201,-0.0002,-0.5786,0.0,0.0
0.2422,-0.0121,-0.6396,0.0,0.0
0.3129,0.0008,0.7885,0.0,0.0
0.2488,-0.0314,-0.7561,0.0,0.0
-0.5657,0.1219,0.6079,0.0,0.0
-0.4254,-0.0712,0.7706,0.0,0.0
0.5153,-0.198,-0.4569,0.0,0.0
0.3604,-0.2933,0.8211,0.0,0.0
-0.5565,0.1336,0.11,0.6102355072463768,0.04286223262797592
-0.6312,0.0008,0.0364,0.0,0.0
0.0086,0.2313,0.7256,3.2268115942028985,0.22664749519652877
-0.0459,-0.2815,0.934,0.0,0.0
0.7799,0.1152,0.133,0.0,0.0
0.7056,0.0393,0.0741,0.0,0.0
0.0819,-0.0666,-0.9558,0.0,0.0
0.6498,-0.1895,-0.2199,0.0,0.0
-0.4187,0.0449,0.4586,0.0,0.0
-0.1948,0.0119,-0.5164,0.0,0.0
0.4126,-0.0549,0.4697,0.0,0.0
-0.6632,-0.095,-0.1819,0.0,0.0
0.2762,-0.0607,-0.8645,0.0,0.0
-0.6023,-0.1734,-0.3254,0.0,0.0
0.596,0.0983,-0.0086,0.0,0.0
-0.0338,0.256,0.732,4.68695652173913,0.32920637748285375
-0.5784,-0.28,-0.3673,0.0,0.0
0.0761,0.2783,0.9173,0.0,0.0
-0.3264,-0.1361,0.8431,0.0,0.0
-0.677,0.1383,0.1975,0.0,0.0
0.0324,0.0462,0.7239,0.0,0.0
0.4662,-0.2921,0.3566,3.221105072463768,0.22624667574342464
-0.1504,-0.0098,-0.3792,0.0,0.0
0.664,-0.2197,0.3993,0.0,0.0
0.7002,0.1121,0.0627,0.0,0.0
-0.0506,-0.0574,0.7227,0.3545289855072463,0.024901703800786365
0.5066,0.1063,-0.0306,0.0,0.0
-0.6873,0.1667,0.2801,0.0,0.0
-0.5646,-0.1966,-0.3892,0.0,0.0
0.0797,0.0008,0.8248,0.0,0.0
-0.8739,0.1512,0.2791,0.0,0.0
0.1554,0.0036,0.9156,0.0,0.0
0.2372,0.2321,0.6801,0.5244565217391304,0.03683721640433139
0.4213,0.0008,0.668,0.0,0.0
0.1926,-0.0587,-0.8534,0.0,0.0
0.5089,0.0135,0.1253,1.0122282608695652,0.07109773632442198
0.5856,-0.0097,-0.6331,0.0,0.0
-0.5694,-0.2102,0.6022,0.0,0.0
-0.5034,-0.2977,0.0199,0.0,0.0
-0.5156,0.1143,0.0738,0.0,0.0
0.6345,-0.172,-0.2581,0.0,0.0
0.6958,0.079,-0.046,0.0,0.0
0.504,-0.1367,0.6909,0.0,0.0
-0.7598,0.0972,0.0306,0.2516304347826087,0.017674229217829466
0.0998,0.0008,0.7262,0.0,0.0
0.3553,0.1864,0.3064,1.3029891304347827,0.09152044179210832
0.0724,-0.0284,-0.7391,0.0,0.0
-0.7043,-0.2237,0.0147,2.9980072463768117,0.2105765437911158
-0.5037,0.0317,-0.4144,0.0,0.0
0.3615,0.0999,-0.0167,0.8005434782608696,0.05622924327832139
-0.4043,0.0761,-0.0588,0.0,0.0
-0.8533,0.1226,0.1169,0.0,0.0
0.0575,0.0974,0.7221,0.0,0.0
-0.412,0.1626,0.4708,0.0,0.0
-0.6938,0.0472,-0.2527,0.0,0.0
-0.2316,-0.0046,0.8904,0.0,0.0
-0.6874,-0.1262,-0.0925,0.0,0.0
-0.4122,-0.2105,-0.5616,0.0,0.0
0.2663,0.0037,-0.5586,0.0,0.0
-0.4767,0.2102,0.5039,1.1355072463768117,0.07975670895417934
-0.1369,-0.0092,0.7604,0.0,0.0
-0.6598,-0.1208,0.4125,0.0,0.0
-0.2972,0.0186,-0.4818,0.0,0.0
0.0482,0.2761,0.9063,0.0,0.0
0.3744,-0.1702,0.5264,0.0,0.0
-0.492,0.0828,-0.0881,2.597826086956522,0.18246828436549645
0.132,-0.0469,-0.7863,0.0,0.0
0.5648,0.0008,-0.284,0.0,0.0
0.3746,0.0591,-0.1223,0.25081521739130436,0.01761696929595745
0.6973,-0.1424,0.2563,0.0,0.0
-0.3762,0.2445,0.8664,0.0,0.0
-0.5757,0.117,0.0877,0.0,0.0
-0.6866,0.1316,0.3162,0.0,0.0
0.8968,0.0892,-0.0145,0.0,0.0
0.5617,-0.1292,-0.3932,0.0,0.0
-0.8853,0.0974,0.0321,0.3357789855072464,0.02358472559772996
0.1773,0.0008,0.7877,0.0,0.0
-0.0784,-0.048,-0.8503,0.0,0.0
0.0999,-0.0092,0.8672,0.0,0.0
0.5936,-0.0092,0.2022,0.0,0.0
0.2044,-0.0455,0.6741,0.0,0.0
0.0386,0.0008,0.7691,0.0,0.0
0.4382,0.1119,0.7592,0.0,0.0
0.304,0.2156,0.4152,0.0,0.0
-0.2656,0.0008,0.7551,0.0,0.0
-0.6987,0.0972,-0.0143,1.8372282608695651,0.1290447772589039
0.6967,-0.2112,-0.0393,0.0,0.0
-0.0798,-0.0092,0.9004,0.0,0.0
0.4229,0.1071,0.4518,0.7842391304347827,0.05508404484088104
-0.5433,-0.1747,0.6407,0.0,0.0
-0.4913,-0.023,-0.7084,0.0,0.0
-0.8624,0.0756,-0.0918,0.0,0.0
-0.4413,-0.1641,-0.5359,0.0,0.0
0.509,0.1181,0.0992,0.6102355072463768,0.04286223262797592
0.6428,0.1052,0.0268,0.0,0.0
0.4365,-0.0077,-0.2055,0.0,0.0
-0.811,0.1466,0.3108,0.0,0.0
0.6865,0.0983,-0.0717,0.0,0.0
-0.1621,-0.0765,0.6939,0.0,0.0
0.2765,0.0239,-0.3003,0.0,0.0
-0.3544,-0.1088,0.8251,0.0,0.0
-0.6097,0.1467,0.1772,0.0,0.0
0.3362,-0.08,0.5717,0.0,0.0
0.276,0.2459,0.6878,0.3431159420289855,0.024100064894578117
-0.7532,0.1176,0.089,0.0,0.0
0.4522,0.2395,0.7802,0.7891304347826087,0.055427604372113144
-0.2226,-0.0659,-0.9519,0.0,0.0
-0.7145,0.1269,0.199,0.0,0.0
-0.043,0.2813,1.0171,0.0,0.0
-0.6164,-0.0401,-0.7477,0.0,0.0
-0.5534,-0.0092,-0.2551,0.0,0.0
-0.6213,0.0008,0.2461,0.0,0.0
0.0545,0.1195,0.7223,0.0,0.0
-0.6813,0.0168,-0.4252,0.0,0.0
-0.1258,-0.0095,-0.4249,0.0,0.0
0.3565,0.2304,0.6077,0.0,0.0
-0.3731,0.2418,0.6663,0.0,0.0
-0.7008,0.0188,-0.0151,0.0,0.0
-0.3781,0.0057,-0.548,0.0,0.0
0.6623,-0.2515,-0.1846,0.0,0.0
0.4982,-0.0233,-0.0156,0.35942028985507246,0.025245263332018476
0.7067,-0.0039,0.1298,0.0,0.0
-0.3985,-0.1535,-0.2717,0.0,0.0
-0.0136,0.2578,0.6193,1.1159420289855073,0.07838247082925091
-0.3078,0.2382,0.7114,0.6077898550724639,0.042690452862359875
-0.7624,0.0562,-0.2595,0.0,0.0
-0.5428,0.0008,0.3295,0.0,0.0
0.6365,-0.0092,0.4239,0.26793478260869563,0.01881942765526982
0.8573,0.1122,0.0583,0.0,0.0
0.1653,-0.0016,-0.3954,0.0,0.0
-0.5327,0.0381,-0.3814,0.0,0.0
-0.128,0.1073,0.9221,0.0,0.0
0.3904,0.0008,-0.3818,0.0,0.0
-0.6183,0.0401,-0.2931,0.0,0.0
-0.4592,0.1433,0.1453,0.0,0.0
0.8033,0.0912,-0.0611,0.0,0.0
-0.0841,-0.0058,0.9298,0.0,0.0
0.7441,0.1128,0.1192,0.0,0.0
-0.0986,-0.2316,0.9277,0.0,0.0
-0.6505,0.0088,-0.528,0.0,0.0
0.5719,0.1068,-0.028,0.0,0.0
0.3099,-0.1397,-0.396,0.0,0.0
0.1046,-0.1857,0.7134,0.0,0.0
0.4095,0.2418,0.793,0.8667572463768116,0.0608800213770375
0.5347,0.1529,0.2725,0.0,0.0
-0.5253,0.1411,0.1487,0.0,0.0
0.407,-0.1645,0.479,0.5228260869565218,0.03672269656058736
0.8272,0.155,0.3012,0.0,0.0
-0.6113,-0.0931,-0.3081,0.0,0.0
0.5976,-0.0092,0.1687,0.0,0.0
-0.4055,-0.1533,0.7875,0.0,0.0
0.4768,-0.0709,-0.5005,0.0,0.0
-0.7365,0.1497,0.2707,0.0,0.0
0.6856,0.1625,0.4011,0.0,0.0
0.1901,0.0412,0.9055,0.0,0.0
-0.6292,-0.2343,0.4908,0.0,0.0
0.3978,0.1696,0.2437,0.709873188405797,0.04986066752344475
0.0067,0.1996,0.7257,2.252264492753623,0.15819643970530226
-0.3095,0.2225,0.4875,0.0,0.0
-0.5616,-0.1725,-0.3937,0.0,0.0
0.6951,0.06,-0.0517,0.0,0.0
0.799,0.1807,0.4468,0.0,0.0
-0.4793,0.2361,0.637,0.0,0.0
0.3359,-0.2404,-0.3518,0.0,0.0
-0.4308,0.2447,0.7448,1.4941123188405796,0.10494471236432579
-0.4868,0.2204,0.5562,0.0,0.0
-0.6161,0.0112,0.5188,0.0,0.0
-0.6635,0.0378,-0.3061,0.0,0.0
0.7184,0.1744,0.4687,0.0,0.0
-0.6153,0.0617,-0.26,0.0,0.0
-0.3447,0.2465,0.5305,0.0,0.0
0.6596,0.2044,0.6385,0.0,0.0
-0.8377,0.1699,0.3854,0.0,0.0
-0.5672,0.2163,0.5987,0.0,0.0
-0.3423,-0.0939,-0.6127,0.0,0.0
-0.6454,-0.0092,0.4416,0.0,0.0
-0.3081,0.2368,0.4944,0.0,0.0
0.6796,0.0008,0.15,0.0,0.0
0.1638,0.2479,0.761,1.4941123188405798,0.1049447123643258
0.3582,0.1373,0.5464,2.801177536231884,0.19675145376579417
0.5597,-0.0366,-0.7858,0.0,0.0
0.3822,0.0008,0.5162,0.532608695652174,0.037409815623051575
-0.3791,-0.1523,0.8078,0.0,0.0
-0.2642,-0.2765,0.6362,0.0,0.0
0.0707,-0.0092,0.819,0.0,0.0
0.7317,0.0012,-0.5136,0.0,0.0
-0.1677,0.2275,0.6907,2.7783514492753625,0.1951481759533777
0.4851,-0.1542,0.2962,0.6306159420289855,0.04429373067477637
-0.2513,-0.0549,-0.8894,0.0,0.0
0.4383,-0.0092,-0.4342,0.0,0.0
0.11,-0.0869,-1.0134,0.0,0.0
-0.7531,0.1567,0.3103,0.0,0.0
0.4581,-0.2845,-0.1574,0.0,0.0
-0.2672,-0.2595,0.8749,0.0,0.0
-0.2949,-0.0352,0.8609,0.0,0.0
0.7059,-0.0127,0.0447,0.0,0.0
-0.4784,-0.1207,-0.0994,3.4114130434782606,0.2396136863937701
-0.5199,-0.1992,-0.4511,0.0,0.0
-0.2902,-0.0097,-0.564,0.0,0.0
0.2848,-0.064,-0.8833,0.0,0.0
-0.7355,0.1564,0.3665,0.0,0.0
-0.3065,-0.0092,0.684,0.0,0.0
0.4591,-0.0128,-0.6508,0.0,0.0
-0.8145,0.1552,0.3596,0.0,0.0
-0.2983,0.2108,0.4441,1.2441123188405796,0.08738500299024035
-0.6774,0.0466,-0.3136,0.0,0.0
0.6386,-0.0337,-0.2468,0.0,0.0
-0.654,0.1491,0.2531,0.0,0.0
0.5014,-0.0057,0.0043,0.0,0.0
-0.2438,-0.0775,-0.4299,0.0,0.0
0.0492,-0.0129,-0.6437,0.0,0.0
0.482,0.084,0.3076,0.6167572463768116,0.04332031200295207
0.1345,0.0091,-0.3556,0.0,0.0
0.3234,0.0752,-0.1087,0.353713768115942,0.02484444387891435
0.4912,-0.2026,-0.0512,2.1893115942028984,0.15377470129407422
0.4143,0.0008,0.6127,0.0,0.0
-0.2314,0.0088,-0.5321,0.0,0.0
0.3284,-0.0092,0.7425,0.0,0.0
0.7062,-0.2149,0.0371,0.0,0.0
-0.5363,-0.0116,-0.6438,0.0,0.0
0.4117,0.1635,0.2674,0.2752717391304348,0.01933476695211798
0.6875,0.1413,0.2128,0.0,0.0
-0.5199,0.0075,-0.4781,0.0,0.0
0.1206,0.2508,0.7761,1.1314311594202897,0.07947040934481923
0.399,-0.1815,0.4916,0.0,0.0
0.2954,-0.1146,0.6109,0.5317934782608695,0.03735255570117955
-0.646,0.1149,0.0137,0.0,0.0
-0.0128,-0.0757,-0.95,0.0,0.0
0.7058,0.0388,0.1264,0.0,0.0
0.5603,-0.0092,0.4204,0.0,0.0
0.4616,0.0008,-0.1944,0.0,0.0
-0.7108,0.094,-0.0452,0.35942028985507246,0.025245263332018476
0.6066,0.0512,-0.2509,0.0,0.0
0.5674,0.0288,-0.3658,0.0,0.0
-0.5122,-0.0092,-0.0246,0.0,0.0
-0.2274,-0.0448,-0.8321,0.0,0.0
-0.0552,-0.0092,0.7302,0.0,0.0
0.3319,-0.1908,-0.356,0.0,0.0
-0.0392,0.1089,0.9344,0.0,0.0
-0.5941,0.1439,0.2262,0.0,0.0
0.6856,-0.1104,0.3174,0.0,0.0
0.3936,0.0237,-0.4553,0.0,0.0
0.1923,-0.1025,0.6801,0.0,0.0
0.276,-0.0092,0.8507,0.0,0.0
0.4488,-0.0026,0.3998,4.741123188405797,0.3330109811805723
0.5158,0.0008,0.3917,0.0,0.0
-0.4867,-0.0092,0.5638,0.0,0.0
0.5472,0.177,0.3333,0.7196557971014493,0.05054778658590897
-0.6459,0.0902,-0.1135,0.0,0.0
0.2397,-0.1283,0.653,0.0,0.0
-0.3874,-0.0893,0.5084,0.0,0.0
-0.4069,-0.2554,-0.2588,0.0,0.0
0.4766,0.055,-0.1052,0.0,0.0
-0.3555,-0.0092,0.7392,0.0,0.0
-0.0867,-0.0177,0.7171,0.0,0.0
-0.4955,-0.0823,0.2499,0.8274456521739131,0.05811882070009798
0.5138,-0.0092,0.0775,0.9647644927536232,0.06776393642876229
-0.125,0.2619,0.8332,2.3665760869565213,0.16622555319446738
0.3654,0.0008,0.5892,0.0,0.0
0.8013,0.1238,0.1814,0.0,0.0
0.4554,0.048,-0.1641,0.6143115942028985,0.04314853223733601
-0.7564,0.1783,0.4904,0.0,0.0
0.4596,0.0008,0.7322,0.0,0.0
-0.6501,-0.122,-0.2193,0.0,0.0
-0.3292,0.2526,0.7854,0.9451992753623188,0.06638969830383387
-0.1796,0.016,-0.3297,0.0,0.0
0.5512,0.0716,0.6256,7.0932065217391305,0.4982185802084261
0.0022,-0.023,-0.6325,0.0,0.0
0.394,-0.0092,0.5685,0.0,0.0
0.2126,-0.0024,-0.5263,0.0,0.0
